ply
format ascii 1.0
element vertex 835
property float x
property float y
property float z
property float nx
property float ny
property float nz
end_header
0.127895 -0.241718 -0.028421 -0.274893 0.760668 0.588062
0.121410 -0.221052 -0.028421 -0.045824 0.264142 0.963395
-0.156316 -0.199999 -0.031370 -0.854206 -0.147386 -0.498608
-0.161166 -0.199999 -0.028421 -0.748625 -0.126150 -0.650881
-0.156316 -0.218535 -0.028421 -0.801322 -0.321823 -0.504295
-0.146842 -0.199999 -0.033990 -0.801225 -0.345344 -0.488647
-0.071053 -0.215205 -0.028421 -0.506682 -0.656931 0.558314
-0.064093 -0.199999 -0.028421 -0.648081 -0.550189 0.526577
0.053952 -0.199999 -0.028421 -0.146438 -0.359349 -0.921642
0.127895 -0.199999 -0.029106 0.386926 -0.501552 0.773779
0.126595 -0.199999 -0.028421 -0.255343 -0.437166 0.862372
-0.156316 -0.178946 -0.034273 -0.522091 -0.547242 -0.654176
-0.161381 -0.178946 -0.028421 -0.380010 -0.359756 -0.852155
-0.061579 -0.195492 -0.028421 -0.531046 -0.659326 0.532240
-0.055621 -0.178946 -0.028421 -0.460708 -0.295815 0.836804
0.049108 -0.178946 -0.028421 -0.426207 -0.289242 -0.857139
0.052105 -0.188957 -0.028421 -0.331809 -0.378458 -0.864102
0.127895 -0.197756 -0.028421 -0.069779 -0.759486 0.646771
0.135670 -0.178946 -0.028421 -0.583359 -0.123776 0.802728
-0.165790 -0.157894 -0.033445 -0.361795 -0.482981 -0.797392
-0.167908 -0.157894 -0.028421 -0.355990 -0.598248 -0.717893
-0.165790 -0.162157 -0.028421 -0.356268 -0.545615 -0.758536
-0.054854 -0.157894 -0.028421 -0.276917 -0.206131 0.938524
0.042631 -0.157894 -0.029000 0.136863 -0.850373 -0.508069
0.042896 -0.157894 -0.028421 -0.348337 -0.628883 -0.695103
0.132414 -0.157894 -0.028421 -0.241545 -0.065522 0.968175
-0.173219 -0.136841 -0.028421 -0.488411 -0.458294 -0.742578
-0.053015 -0.136841 -0.028421 -0.302657 -0.286895 0.908895
-0.042632 -0.136841 -0.030045 -0.852135 0.002571 0.523316
-0.047458 -0.136841 -0.028421 -0.677970 -0.572167 -0.461500
-0.042632 -0.140664 -0.028421 -0.606343 -0.512732 0.607827
-0.041131 -0.136841 -0.028421 -0.312199 -0.082486 0.946429
0.025265 -0.136841 -0.028421 -0.361237 -0.399712 -0.842459
0.033158 -0.153478 -0.028421 -0.047779 -0.923631 -0.380294
0.042631 -0.157551 -0.028421 -0.339630 -0.870632 -0.355880
0.136028 -0.136841 -0.028421 -0.094841 -0.531995 0.841419
-0.175263 -0.115788 -0.033149 -0.444087 -0.443890 -0.778298
-0.179903 -0.115788 -0.028421 -0.496695 -0.546740 -0.674069
-0.175263 -0.130024 -0.028421 -0.504523 -0.504542 -0.700639
-0.052105 -0.131074 -0.028421 -0.452018 -0.616195 0.644968
-0.042632 -0.115788 -0.028862 -0.417316 -0.543609 0.728242
-0.042297 -0.115788 -0.028421 -0.110334 -0.439608 0.891387
0.024060 -0.115788 -0.028421 -0.305387 -0.486784 -0.818401
0.137368 -0.134304 -0.028421 -0.277438 -0.838322 0.469302
0.146842 -0.130640 -0.028421 -0.322026 -0.920976 0.219322
0.155891 -0.115788 -0.028421 -0.512742 -0.687117 0.514748
-0.194211 -0.094736 -0.029046 -0.499018 -0.498295 -0.709001
-0.194732 -0.094736 -0.028421 -0.300458 -0.181274 -0.936410
-0.194211 -0.096526 -0.028421 -0.354540 -0.490781 -0.795887
-0.184737 -0.108490 -0.028421 -0.454511 -0.800788 -0.390075
-0.184737 -0.094736 -0.033633 -0.789190 -0.414432 -0.453238
-0.035693 -0.094736 -0.028421 -0.086168 -0.723008 0.685445
0.002227 -0.094736 -0.028421 -0.064957 -0.898895 -0.433323
0.004737 -0.096667 -0.028421 -0.159210 -0.928819 -0.334587
0.014210 -0.105053 -0.028421 -0.238233 -0.876748 -0.417802
0.023684 -0.114925 -0.028421 -0.214639 -0.856864 -0.468737
0.156316 -0.115125 -0.028421 -0.324919 -0.681162 0.656084
0.161869 -0.094736 -0.028421 -0.374779 -0.255837 0.891116
-0.194211 -0.073683 -0.034362 -0.359197 -0.589607 -0.723423
-0.197045 -0.073683 -0.028421 -0.394464 -0.154284 -0.905867
-0.033158 -0.089572 -0.028421 -0.065642 -0.765945 0.639546
-0.025771 -0.073683 -0.028421 0.017656 -0.528489 0.848757
-0.014211 -0.076582 -0.028421 0.002861 -0.984874 -0.173251
-0.014211 -0.073683 -0.031066 -0.376742 -0.908358 0.181522
-0.017472 -0.073683 -0.028421 0.138061 -0.883854 -0.446924
-0.009291 -0.073683 -0.028421 0.069631 -0.930471 0.359688
-0.003556 -0.073683 -0.028421 -0.151674 -0.484504 -0.861540
0.156316 -0.073683 -0.034457 -0.203351 -0.690059 0.694599
0.162779 -0.073683 -0.028421 -0.712622 0.302068 0.633186
-0.197390 -0.052630 -0.028421 -0.107668 -0.309702 -0.944718
-0.023684 -0.064410 -0.028421 0.524258 -0.815422 -0.245440
-0.004737 -0.067986 -0.028421 -0.286097 -0.934528 -0.211675
0.162410 -0.052630 -0.028421 -0.285959 -0.206582 0.935709
-0.222632 -0.031578 -0.033260 -0.550259 -0.536536 -0.639800
-0.229674 -0.031578 -0.028421 0.317502 -0.399484 -0.860003
-0.222632 -0.044271 -0.028421 -0.016282 -0.962903 -0.269357
-0.213158 -0.045151 -0.028421 0.201903 -0.955821 0.213640
-0.203684 -0.040092 -0.028421 -0.002254 -0.970464 -0.241237
0.165789 -0.035605 -0.028421 -0.359210 0.201965 0.911141
0.165789 -0.031578 -0.029156 -0.476229 0.559412 0.678427
0.166356 -0.031578 -0.028421 -0.137588 0.423784 0.895252
-0.222632 -0.010525 -0.029959 -0.902030 -0.192167 -0.386540
-0.229170 -0.010525 -0.028421 0.320912 -0.192140 -0.927414
0.165789 -0.029677 -0.028421 -0.174289 0.665044 0.726182
0.160513 -0.010525 -0.028421 -0.212475 0.065383 0.974977
-0.236363 0.010528 -0.028421 0.142522 0.158925 -0.976949
-0.232105 -0.004396 -0.028421 0.074664 -0.661173 -0.746509
-0.222632 0.010528 -0.034019 -0.828067 -0.200156 -0.523681
0.163701 0.010528 -0.028421 -0.214052 -0.116318 0.969872
-0.232105 0.018304 -0.028421 -0.172479 0.793001 -0.584295
-0.222632 0.031580 -0.030293 -0.453813 0.673275 -0.583742
-0.225611 0.031580 -0.028421 -0.311086 0.299235 -0.902044
0.163485 0.031580 -0.028421 -0.240468 0.067044 0.968339
-0.232105 0.052633 -0.028563 -0.914207 0.143698 -0.378914
-0.232457 0.052633 -0.028421 -0.616746 0.302061 -0.726900
-0.232105 0.051663 -0.028421 -0.513537 -0.538942 -0.667699
-0.222632 0.052633 -0.030828 -0.912601 0.095468 -0.397550
0.161614 0.052633 -0.028421 -0.273045 0.218619 0.936831
-0.232105 0.053329 -0.028421 -0.641371 0.644162 -0.416772
-0.222632 0.073686 -0.028683 -0.538508 0.524980 -0.659094
-0.223111 0.073686 -0.028421 -0.528787 0.447309 -0.721317
0.156316 0.071811 -0.028421 -0.618377 0.274956 0.736213
0.155391 0.073686 -0.028421 -0.526433 0.273994 0.804858
-0.222632 0.078143 -0.028421 -0.729848 0.365224 -0.577870
-0.213158 0.081763 -0.028421 -0.137560 0.631918 -0.762730
-0.209852 0.094738 -0.028421 -0.364784 0.264775 -0.892651
0.146842 0.094738 -0.030587 -0.832454 -0.126530 0.539455
0.156316 0.091417 -0.028421 -0.655972 0.433990 0.617539
0.156316 0.094738 -0.028588 -0.488016 0.573082 0.658344
0.156413 0.094738 -0.028421 -0.402564 0.436553 0.804589
-0.207912 0.115791 -0.028421 -0.234409 0.492201 -0.838326
0.156316 0.095103 -0.028421 -0.399551 0.681637 0.612968
0.148526 0.115791 -0.028421 -0.325002 0.451844 0.830790
-0.203684 0.129550 -0.028421 -0.160226 0.480665 -0.862142
-0.201843 0.136844 -0.028421 -0.129488 0.293607 -0.947116
0.146842 0.121741 -0.028421 -0.445822 0.489268 0.749573
0.140462 0.136844 -0.028421 -0.394512 0.492814 0.775561
-0.194211 0.157896 -0.032885 -0.279359 0.703272 -0.653733
-0.197307 0.157896 -0.028421 -0.144776 0.578182 -0.802961
0.137368 0.157896 -0.029393 -0.312820 0.528544 0.789167
0.138357 0.157896 -0.028421 -0.608849 0.440174 0.659962
-0.194211 0.163309 -0.028421 -0.248895 0.841437 -0.479620
-0.184737 0.176888 -0.028421 -0.246551 0.789350 -0.562263
-0.183672 0.178949 -0.028421 -0.379916 0.261568 -0.887269
0.137368 0.159507 -0.028421 -0.398863 0.664460 0.631982
0.132004 0.178949 -0.028421 -0.304161 0.233122 0.923656
-0.189246 0.200001 -0.028421 -0.331729 -0.486717 -0.808123
-0.184737 0.184633 -0.028421 -0.363144 -0.406222 -0.838517
0.132703 0.200001 -0.028421 -0.384620 -0.101435 0.917485
-0.307895 0.221054 -0.034670 0.485697 -0.247827 -0.838260
-0.298421 0.221054 -0.030873 0.711872 -0.547311 -0.440101
-0.288947 0.221054 -0.031990 0.536686 -0.837247 0.104817
-0.279474 0.221054 -0.032971 0.727062 -0.678033 0.107947
-0.270000 0.221054 -0.034356 0.548019 -0.782568 0.295403
-0.189633 0.221054 -0.028421 -0.148446 -0.239409 -0.959504
0.134659 0.221054 -0.028421 -0.486097 -0.063446 0.871599
-0.307895 0.242107 -0.031313 0.247496 -0.607821 -0.754519
-0.304976 0.242107 -0.028421 0.146471 -0.691317 -0.707550
-0.298421 0.227890 -0.028421 0.161082 -0.895404 -0.415095
-0.288947 0.227346 -0.028421 0.137805 -0.970490 0.197888
-0.279474 0.233851 -0.028421 0.223234 -0.907320 0.356281
-0.272461 0.242107 -0.028421 0.162814 -0.594294 0.787595
-0.270000 0.242107 -0.031094 0.028619 -0.495078 0.868377
-0.194211 0.242107 -0.029833 0.524996 -0.342723 -0.779051
-0.192789 0.242107 -0.028421 0.067212 -0.353209 -0.933127
0.127895 0.242107 -0.034594 -0.620040 -0.179533 0.763752
0.134552 0.242107 -0.028421 -0.448183 -0.065403 0.891546
-0.336917 0.263160 -0.028421 -0.002390 -0.918812 -0.394688
-0.336316 0.262578 -0.028421 0.052329 -0.982268 -0.180032
-0.326842 0.260312 -0.028421 0.146466 -0.985069 0.090482
-0.317368 0.263160 -0.032666 0.400524 -0.903139 -0.154661
-0.321236 0.263160 -0.028421 0.439577 -0.537892 0.719336
-0.315419 0.263160 -0.028421 0.076796 -0.486182 -0.870476
-0.307895 0.247473 -0.028421 0.079826 -0.631654 -0.771130
-0.279474 0.263160 -0.033985 -0.448697 0.074466 0.890576
-0.276109 0.263160 -0.028421 0.145206 0.151127 0.977791
-0.195475 0.263160 -0.028421 0.298743 -0.627272 -0.719224
-0.194211 0.259857 -0.028421 0.321342 -0.190668 -0.927569
0.136676 0.263160 -0.028421 -0.286548 -0.255665 0.923323
-0.336316 0.266373 -0.028421 0.409564 0.477543 -0.777309
-0.330699 0.284212 -0.028421 0.504280 0.548461 -0.667003
-0.324806 0.284212 -0.028421 0.336390 0.420258 0.842749
-0.312505 0.284212 -0.028421 0.232001 0.267803 -0.935124
-0.298421 0.284212 -0.033007 -0.811047 0.011137 0.584875
-0.288947 0.284212 -0.031191 -0.949866 -0.236866 -0.204082
-0.279474 0.284212 -0.033935 -0.869808 0.193948 0.453672
-0.274394 0.284212 -0.028421 -0.090994 -0.198121 0.975945
-0.194211 0.284212 -0.031593 -0.397041 0.043133 -0.916787
-0.196811 0.284212 -0.028421 -0.381948 -0.039175 -0.923353
0.137368 0.267220 -0.028421 -0.421950 -0.464405 0.778644
0.146842 0.270756 -0.028421 -0.601714 -0.740031 0.300490
0.146842 0.284212 -0.031930 -0.620480 -0.747243 0.237976
0.156316 0.282358 -0.028421 -0.311675 -0.948331 -0.059391
0.156316 0.284212 -0.029517 -0.509886 -0.850362 -0.130004
0.165789 0.275739 -0.028421 -0.225583 -0.973395 -0.040190
0.175263 0.277998 -0.028421 -0.252694 -0.960123 -0.119625
0.184737 0.265094 -0.028421 -0.459166 -0.800095 -0.386023
0.194210 0.270055 -0.028421 -0.665317 -0.696290 0.269320
0.194210 0.284212 -0.033972 -0.305545 -0.949045 0.077175
0.203684 0.276071 -0.028421 -0.260704 -0.947943 -0.182858
0.213158 0.267730 -0.028421 -0.505586 -0.822045 0.261963
0.217491 0.284212 -0.028421 -0.111551 -0.316995 0.941844
0.412105 0.284212 -0.033534 0.761912 -0.619085 -0.190325
-0.412105 0.303932 -0.028421 -0.548567 -0.667549 0.503441
-0.412105 0.305265 -0.029696 -0.524742 -0.567776 0.634253
-0.410571 0.305265 -0.028421 -0.354932 -0.709266 0.609069
-0.326842 0.293238 -0.028421 0.502033 0.863463 -0.048930
-0.308642 0.305265 -0.028421 0.357331 -0.051471 -0.932559
-0.270000 0.305158 -0.028421 0.153037 -0.570426 0.806966
-0.270000 0.305265 -0.028459 -0.534346 -0.724867 0.434791
-0.260526 0.302601 -0.028421 -0.277443 -0.895997 -0.346719
-0.260526 0.305265 -0.030007 -0.708317 -0.671524 -0.217584
-0.251053 0.291283 -0.028421 -0.347505 -0.925485 -0.150726
-0.251053 0.305265 -0.031361 -0.685886 -0.707935 -0.168486
-0.241579 0.294703 -0.028421 -0.562623 -0.794205 0.229551
-0.241579 0.305265 -0.034720 -0.531779 -0.833281 -0.151172
-0.235098 0.305265 -0.028421 -0.273462 -0.791565 0.546483
-0.222632 0.305265 -0.032836 -0.289792 -0.757030 -0.585599
-0.229605 0.305265 -0.028421 -0.103087 -0.741572 -0.662905
-0.222632 0.290350 -0.028421 -0.134697 -0.947375 -0.290410
-0.213158 0.287120 -0.028421 -0.418599 -0.900864 0.114972
-0.204844 0.305265 -0.028421 -0.076532 -0.694828 0.715092
-0.200279 0.305265 -0.028421 -0.061412 -0.847943 -0.526519
0.222631 0.297843 -0.028421 -0.216944 -0.828960 0.515520
0.232105 0.297714 -0.028421 -0.294138 -0.955760 0.002416
0.232105 0.305265 -0.032095 -0.564777 -0.681943 0.464738
0.241579 0.299807 -0.028421 -0.511736 -0.780545 0.358993
0.241579 0.305265 -0.029211 -0.825628 -0.288624 0.484803
0.243354 0.305265 -0.028421 -0.453316 -0.175204 0.873961
0.412105 0.305265 -0.031617 0.998390 0.041764 0.038385
-0.412105 0.326318 -0.032246 -0.720851 -0.597753 0.350807
-0.402632 0.312714 -0.028421 -0.281847 -0.959445 0.005281
-0.402632 0.326318 -0.032884 -0.721578 -0.602899 -0.340350
-0.393158 0.310831 -0.028421 -0.113817 -0.958186 0.262538
-0.383684 0.321841 -0.028421 -0.122823 -0.880506 0.457846
-0.383684 0.326318 -0.030010 -0.648352 -0.557036 0.518990
-0.379286 0.326318 -0.028421 -0.314459 -0.695744 0.645799
-0.312685 0.326318 -0.028421 -0.027786 -0.271208 -0.962120
-0.270000 0.326318 -0.033167 -0.554224 -0.831498 0.038037
-0.232105 0.308403 -0.028421 -0.159768 -0.984024 0.078558
-0.203684 0.307668 -0.028421 -0.079232 -0.949014 0.305115
0.241579 0.310679 -0.028421 -0.536334 0.575364 0.617497
0.235980 0.326318 -0.028421 -0.003191 0.426404 0.904527
0.402631 0.326318 -0.033591 0.781555 -0.220495 -0.583570
0.412105 0.326318 -0.030978 0.893380 -0.421688 0.155085
-0.374211 0.342080 -0.028421 -0.528086 -0.841643 0.112975
-0.374211 0.347370 -0.029523 -0.900920 -0.433936 0.006520
-0.364737 0.331811 -0.028421 -0.490408 -0.860348 0.138928
-0.359741 0.347370 -0.028421 -0.221975 -0.629065 0.744986
-0.336316 0.347370 -0.033299 0.602997 -0.713451 -0.356907
-0.326842 0.347370 -0.029851 0.633702 -0.748826 -0.194118
-0.317368 0.347370 -0.033470 0.615668 -0.650394 -0.444905
-0.313566 0.347370 -0.028421 0.269705 -0.306173 -0.912972
0.232105 0.347370 -0.031544 0.812204 0.518425 0.267507
0.232105 0.338545 -0.028421 0.150786 0.685410 0.712374
0.227664 0.347370 -0.028421 0.354586 0.861660 0.363059
0.241579 0.347370 -0.031778 0.552840 0.685085 0.474370
0.393158 0.347370 -0.032322 0.746551 0.145335 -0.649261
0.399912 0.347370 -0.028421 0.601578 -0.176864 -0.778989
0.402631 0.340634 -0.028421 0.865379 -0.465205 -0.186290
0.407990 0.347370 -0.028421 0.881679 0.049792 0.469215
0.412105 0.347370 -0.029524 0.862151 -0.084061 0.499629
-0.374211 0.368423 -0.029586 -0.701347 -0.329029 0.632339
-0.364737 0.368423 -0.034062 -0.831266 0.036552 -0.554671
-0.355263 0.351367 -0.028421 -0.104990 -0.959938 0.259800
-0.345789 0.358491 -0.028421 0.087145 -0.995333 0.041441
-0.345789 0.368423 -0.034150 -0.990872 -0.104966 -0.084589
-0.336316 0.354096 -0.028421 0.195776 -0.965302 -0.172811
-0.326842 0.348297 -0.028421 0.221741 -0.961952 0.159624
-0.317368 0.359069 -0.028421 -0.011107 -0.822728 -0.568326
0.165789 0.368423 -0.032652 0.780246 0.212083 0.588419
0.165789 0.360965 -0.028421 0.432680 0.704491 0.562566
0.163435 0.368423 -0.028421 0.287556 0.247982 0.925103
0.175263 0.368423 -0.033286 0.837548 -0.207763 -0.505320
0.175263 0.356355 -0.028421 0.380506 0.924751 -0.007148
0.184675 0.368423 -0.028421 0.607353 0.285480 -0.741366
0.194210 0.368423 -0.032989 0.712717 0.129705 0.689356
0.194210 0.354409 -0.028421 0.360424 0.896033 0.259266
0.184787 0.368423 -0.028421 0.448433 -0.178253 0.875862
0.203684 0.347441 -0.028421 0.307689 0.938597 0.156087
0.213158 0.349399 -0.028421 0.311263 0.947370 -0.074873
0.222631 0.350868 -0.028421 0.371174 0.923073 0.100826
0.401235 0.368423 -0.028421 -0.530853 -0.281645 -0.799294
0.402631 0.368423 -0.028796 -0.420933 0.711574 0.562564
0.402921 0.368423 -0.028421 -0.068546 0.608052 0.790933
-0.374211 0.389475 -0.032532 -0.835843 0.103986 0.539029
-0.365539 0.389475 -0.028421 -0.676224 0.469487 0.567717
-0.364737 0.387501 -0.028421 -0.784882 0.619645 0.000962
-0.355263 0.389475 -0.030399 -0.748227 0.631453 0.203528
-0.363407 0.389475 -0.028421 -0.343249 0.914980 -0.212113
-0.351807 0.389475 -0.028421 -0.360458 0.793080 0.491013
-0.345789 0.382581 -0.028421 0.078777 0.996327 0.033574
-0.336592 0.389475 -0.028421 0.186961 0.914915 -0.357737
-0.317368 0.380321 -0.028421 -0.267147 0.412435 -0.870936
-0.325086 0.389475 -0.028421 -0.042695 0.286388 0.957162
-0.316340 0.389475 -0.028421 -0.080664 -0.300163 -0.950471
0.165789 0.389475 -0.030892 0.939306 0.190387 0.285407
0.160734 0.389475 -0.028421 0.624492 0.199271 0.755183
0.175263 0.389475 -0.029572 0.782591 -0.487272 -0.387448
0.176761 0.389475 -0.028421 0.506341 -0.514614 -0.691947
0.194210 0.379044 -0.028421 0.448952 -0.615910 0.647377
0.197631 0.389475 -0.028421 0.343291 0.140063 0.928727
0.222631 0.389475 -0.032230 0.198598 0.822060 0.533644
0.393158 0.389475 -0.032106 0.836739 0.541740 0.079913
0.402631 0.369180 -0.028421 -0.229040 0.877192 0.421989
-0.373862 0.410528 -0.028421 0.187336 0.576494 0.795336
-0.355263 0.410528 -0.029287 -0.546099 0.815554 -0.191436
-0.356728 0.410528 -0.028421 -0.005172 0.656356 -0.754434
-0.353563 0.410528 -0.028421 -0.337244 0.496596 0.799787
-0.336316 0.389782 -0.028421 0.644874 0.721821 -0.251220
-0.336316 0.410528 -0.033086 0.377760 -0.688451 -0.619138
-0.329661 0.410528 -0.028421 0.427515 0.319570 -0.845639
-0.317368 0.392944 -0.028421 0.069609 -0.790656 -0.608291
-0.146842 0.410528 -0.033378 0.610090 0.776008 -0.160009
-0.146842 0.393986 -0.028421 -0.009040 0.967422 0.253009
-0.152640 0.410528 -0.028421 0.156195 0.756156 0.635477
-0.137369 0.410528 -0.030404 0.640664 0.372735 -0.671281
-0.137369 0.399082 -0.028421 0.705836 0.434341 -0.559592
-0.135179 0.410528 -0.028421 0.648284 0.214653 -0.730515
0.165789 0.410528 -0.034449 0.881028 -0.432226 -0.192274
0.158487 0.410528 -0.028421 0.672584 -0.420417 0.609000
0.169994 0.410528 -0.028421 0.418123 -0.267600 -0.868080
0.175263 0.393317 -0.028421 0.592181 -0.578570 -0.560873
0.194210 0.410528 -0.030554 0.661493 0.043471 0.748691
0.194210 0.401297 -0.028421 0.600939 0.415958 0.682533
0.190360 0.410528 -0.028421 0.667862 0.116269 0.735148
-0.374211 0.431581 -0.034055 0.683984 0.505193 0.526257
-0.374211 0.411743 -0.028421 0.013487 0.657641 0.753211
-0.379746 0.431581 -0.028421 0.083963 0.691815 0.717176
-0.355263 0.413505 -0.028421 -0.310313 0.949140 0.053274
-0.345789 0.431581 -0.030387 0.966055 0.028283 -0.256784
-0.336316 0.431581 -0.029275 0.997250 -0.006035 -0.073870
-0.326842 0.421690 -0.028421 0.599251 0.393161 -0.697368
-0.326842 0.431581 -0.029735 0.928079 -0.370116 -0.041045
-0.323640 0.431581 -0.028421 0.316871 0.005629 -0.948452
-0.165790 0.431581 -0.028557 0.473981 0.548122 0.689133
-0.165790 0.431177 -0.028421 0.079997 0.801869 0.592120
-0.166286 0.431581 -0.028421 0.077930 0.887619 0.453937
-0.156316 0.413885 -0.028421 0.048535 0.964509 0.259552
-0.137369 0.431581 -0.033696 0.332145 0.865948 -0.373917
-0.127895 0.421766 -0.028421 0.576917 0.712332 -0.399688
-0.127895 0.431581 -0.033554 0.593777 0.791210 -0.146340
-0.121391 0.431581 -0.028421 0.322396 0.782834 -0.532196
-0.090000 0.431581 -0.029080 0.702551 0.395046 -0.591913
-0.090000 0.430168 -0.028421 0.560673 0.717066 -0.414080
-0.097588 0.431581 -0.028421 0.708168 0.700179 0.090822
-0.089383 0.431581 -0.028421 0.320146 0.133430 -0.937925
0.165789 0.422867 -0.028421 0.701572 -0.686965 -0.189409
0.194210 0.431581 -0.029728 0.915619 -0.041307 0.399918
0.189387 0.431581 -0.028421 0.843910 -0.022555 0.536010
0.203684 0.431581 -0.032884 0.941592 -0.014044 0.336463
0.213158 0.431581 -0.031009 0.713892 -0.565057 0.413606
0.383684 0.431581 -0.032972 0.726296 -0.472256 -0.499468
0.393158 0.431581 -0.033147 0.964118 -0.159688 0.212075
-0.402632 0.452633 -0.029835 -0.386656 -0.570689 0.724439
-0.383684 0.452633 -0.034436 0.614928 0.162254 0.771710
-0.383684 0.437306 -0.028421 -0.053134 0.920745 0.386529
-0.391831 0.452633 -0.028421 0.255316 0.346944 0.902465
-0.336316 0.452633 -0.029414 0.674854 -0.621856 -0.397324
-0.333932 0.452633 -0.028421 0.518607 -0.641839 -0.564879
-0.326842 0.436811 -0.028421 0.361568 -0.776834 -0.515555
-0.165790 0.432055 -0.028421 0.008236 -0.292790 0.956141
-0.162610 0.452633 -0.028421 -0.148750 -0.262527 0.953390
-0.118421 0.434270 -0.028421 0.262481 0.917389 -0.299168
-0.108947 0.452633 -0.032082 0.898352 0.175095 -0.402872
-0.108947 0.440605 -0.028421 0.487872 0.863171 -0.130060
-0.099474 0.452633 -0.031168 0.968994 -0.205034 -0.137882
-0.099474 0.432358 -0.028421 0.784063 0.556697 0.274469
-0.090000 0.452633 -0.030199 0.936424 -0.071797 -0.343447
-0.086519 0.452633 -0.028421 0.333875 -0.053835 -0.941079
0.194210 0.452633 -0.029426 0.837298 -0.038557 0.545385
0.191361 0.452633 -0.028421 0.673966 0.044902 0.737396
0.203684 0.452633 -0.034725 0.943387 0.242199 0.226630
0.213158 0.452633 -0.029072 0.904576 -0.409392 -0.118914
0.222631 0.452633 -0.032803 0.767619 -0.199766 0.608978
0.289280 0.452633 -0.028421 -0.345190 -0.637922 -0.688403
0.298421 0.441910 -0.028421 -0.077429 -0.966754 -0.243703
0.307895 0.443462 -0.028421 -0.104900 -0.994323 -0.017850
0.317368 0.441085 -0.028421 -0.059295 -0.998014 0.021255
0.326842 0.443854 -0.028421 0.030478 -0.982399 0.184292
0.326842 0.452633 -0.033991 -0.855696 0.386755 0.343808
0.336045 0.452633 -0.028421 0.158699 -0.739716 0.653938
0.336316 0.452633 -0.028979 -0.116013 -0.642949 0.757072
0.379973 0.452633 -0.028421 0.150084 -0.290380 -0.945068
0.383684 0.442615 -0.028421 0.148934 -0.829602 -0.538125
0.391562 0.452633 -0.028421 0.083900 -0.609365 0.788438
0.407678 0.452633 -0.028421 -0.031005 -0.452381 -0.891286
0.412105 0.443995 -0.028421 0.392455 -0.914805 0.095451
0.418575 0.452633 -0.028421 -0.048863 -0.580373 0.812883
-0.383684 0.473686 -0.030041 0.912224 -0.346081 0.219260
-0.390766 0.473686 -0.028421 0.293645 0.110431 0.949515
-0.374211 0.473686 -0.029889 0.894172 -0.357796 0.269145
-0.355263 0.473686 -0.032720 0.877751 0.083481 -0.471788
-0.348584 0.473686 -0.028421 -0.286975 0.028051 -0.957527
-0.345789 0.462331 -0.028421 -0.047955 -0.664784 -0.745495
-0.336316 0.455852 -0.028421 0.448136 -0.825017 -0.344270
-0.184737 0.473686 -0.033494 -0.270205 0.596546 0.755726
-0.175263 0.473686 -0.031049 -0.527749 0.820790 0.218597
-0.170561 0.473686 -0.028421 -0.386179 0.612645 0.689588
-0.165790 0.465025 -0.028421 -0.298075 0.467546 0.832197
-0.108947 0.473686 -0.031204 0.449501 -0.142550 -0.881833
-0.106703 0.473686 -0.028421 0.541200 -0.267829 -0.797101
-0.099474 0.461805 -0.028421 0.664028 -0.747690 -0.005228
-0.090000 0.468581 -0.028421 0.732296 -0.619406 -0.282980
0.165789 0.473686 -0.030527 0.579692 -0.812995 -0.054739
0.165789 0.470770 -0.028421 0.809425 0.579910 0.092390
0.161269 0.473686 -0.028421 0.788191 -0.573105 0.224287
0.168887 0.473686 -0.028421 0.803847 -0.313894 -0.505272
0.184737 0.473686 -0.030786 0.965083 -0.260668 0.025817
0.184737 0.462603 -0.028421 0.860915 0.449570 0.238145
0.179901 0.473686 -0.028421 0.768566 -0.097633 0.632277
0.194210 0.473686 -0.029005 0.957648 0.037699 0.285463
0.213158 0.455444 -0.028421 0.733941 -0.613443 -0.291577
0.209614 0.473686 -0.028421 0.375734 -0.329692 -0.866099
0.217502 0.473686 -0.028421 0.648258 -0.329139 0.686607
0.222631 0.473686 -0.031157 0.781853 -0.503246 0.368035
0.232105 0.473686 -0.031158 0.933449 -0.299766 -0.197011
0.238316 0.473686 -0.028421 0.555036 -0.632429 -0.540340
0.241579 0.470170 -0.028421 0.388002 -0.917286 0.089667
0.243968 0.473686 -0.028421 0.309517 -0.512874 0.800724
0.270000 0.473686 -0.030136 -0.606666 -0.742452 -0.284113
0.268838 0.473686 -0.028421 -0.279549 -0.452338 -0.846902
0.270000 0.468500 -0.028421 -0.569028 -0.225581 -0.790772
0.271809 0.473686 -0.028421 -0.523080 -0.349251 0.777439
0.298421 0.473686 -0.030787 -0.441064 0.627580 -0.641565
0.296781 0.473686 -0.028421 -0.520145 0.481863 -0.705164
0.307895 0.473686 -0.030455 -0.142061 0.817093 -0.558729
0.326842 0.462852 -0.028421 -0.029068 0.884932 0.464812
0.322562 0.473686 -0.028421 -0.008637 0.461376 0.887163
0.335937 0.469920 -0.028870 0.166652 0.032869 -0.985468
0.336316 0.470649 -0.028421 -0.317827 0.918507 -0.235225
0.336271 0.473686 -0.028421 -0.101900 0.833616 -0.542864
0.345789 0.473686 -0.032311 0.224432 0.962540 0.152139
0.336519 0.473686 -0.028421 -0.570288 0.659122 0.490236
0.382473 0.473686 -0.028421 -0.059688 0.552606 -0.831303
0.386816 0.473686 -0.028421 -0.169089 0.823332 0.541788
0.398715 0.473686 -0.028421 -0.504989 0.583784 -0.635753
0.402631 0.465213 -0.028421 -0.412109 -0.509240 -0.755540
0.418143 0.473686 -0.028421 -0.435632 0.235090 0.868883
-0.393158 0.494739 -0.034623 0.400037 0.762680 0.508223
-0.393158 0.475455 -0.028421 0.251904 0.808520 0.531826
-0.400063 0.494739 -0.028421 -0.004910 0.315136 0.949034
-0.391897 0.490234 -0.033311 0.616820 0.768773 0.168882
-0.383684 0.480804 -0.028421 0.517602 -0.821439 -0.239428
-0.386973 0.494739 -0.028421 -0.074223 -0.187811 -0.979397
-0.383684 0.494739 -0.032515 0.160412 0.860423 -0.483674
-0.374211 0.485724 -0.028421 -0.166311 -0.542093 0.823696
-0.372929 0.494739 -0.028421 -0.248268 -0.260930 0.932887
-0.345789 0.494739 -0.029193 0.613959 -0.399363 -0.680856
-0.345789 0.489409 -0.028421 -0.063530 0.460819 -0.885217
-0.343004 0.494739 -0.028421 -0.681911 -0.504535 -0.529567
-0.184737 0.484217 -0.028421 0.103066 0.888123 0.447900
-0.189539 0.494739 -0.028421 0.044232 0.272398 0.961168
-0.175263 0.479192 -0.028421 -0.085090 0.933675 0.347865
-0.118421 0.494739 -0.032753 0.635712 0.761435 0.126832
-0.099474 0.494739 -0.029348 0.810818 0.574572 -0.111538
-0.099474 0.490963 -0.028421 0.710921 0.613732 -0.343402
-0.090000 0.494739 -0.029554 0.776163 0.545711 -0.315865
-0.090000 0.481193 -0.028421 0.899381 0.428955 -0.084331
-0.087776 0.494739 -0.028421 0.658470 0.410433 -0.630842
0.165789 0.475502 -0.028421 0.390230 -0.920548 -0.017679
0.184737 0.485408 -0.028421 0.787661 -0.495434 0.366246
0.194210 0.494089 -0.028421 0.462074 -0.873348 0.154111
0.203684 0.493938 -0.028421 0.754298 -0.324276 -0.570859
0.222631 0.487095 -0.028421 0.720621 -0.395088 0.569747
0.226235 0.494739 -0.028421 0.570086 0.011999 0.821498
0.232105 0.494739 -0.030847 0.879902 -0.405296 0.248008
0.236923 0.494739 -0.028421 0.189021 -0.185057 -0.964378
0.251052 0.491821 -0.028421 0.191801 -0.825737 0.530443
0.251052 0.494739 -0.031027 -0.244005 0.161593 0.956216
0.255445 0.494739 -0.028421 0.018821 -0.612301 0.790400
0.261608 0.494739 -0.028421 0.018850 -0.258831 -0.965739
0.279473 0.490149 -0.028421 -0.327175 -0.527105 0.784294
0.279473 0.494739 -0.029058 -0.779409 0.334004 0.530059
0.280917 0.494739 -0.028421 -0.182668 0.353039 0.917603
0.298421 0.479944 -0.028421 -0.814629 0.566859 -0.122676
0.307895 0.475052 -0.028421 -0.490022 0.622089 -0.610642
0.317368 0.488845 -0.028421 -0.365562 0.735507 0.570433
0.336316 0.473783 -0.028421 -0.005593 0.973980 -0.226566
0.383684 0.476584 -0.028421 -0.093336 0.966670 -0.238405
0.402631 0.476609 -0.028421 -0.225920 0.937913 -0.263211
0.412105 0.494739 -0.033320 0.044724 0.991582 -0.121514
0.412105 0.487623 -0.028421 -0.377132 0.840690 -0.388603
-0.393158 0.504185 -0.028421 -0.175517 -0.932045 -0.316996
-0.383684 0.515791 -0.032446 -0.763590 -0.629406 0.144146
-0.364737 0.506939 -0.028421 -0.234160 -0.933585 0.271272
-0.355263 0.513054 -0.028421 -0.251194 -0.964108 -0.086003
-0.345789 0.496588 -0.028421 -0.374623 -0.765365 -0.523330
-0.185927 0.515791 -0.028421 -0.310618 -0.399969 0.862289
-0.080526 0.515791 -0.031408 0.799882 0.430361 -0.418304
-0.080526 0.504907 -0.028421 0.416257 0.827442 -0.376921
-0.071053 0.515791 -0.028785 0.646365 0.606166 -0.463439
-0.071053 0.514537 -0.028421 0.583175 0.679318 -0.445459
-0.070352 0.515791 -0.028421 0.737063 0.402853 -0.542630
-0.052105 0.515791 -0.032906 0.922450 0.380899 0.063262
-0.052105 0.506026 -0.028421 0.574571 0.762613 0.297135
-0.057402 0.515791 -0.028421 0.376413 0.494077 0.783710
-0.042632 0.515791 -0.031656 0.839440 0.430234 -0.332023
-0.042632 0.505314 -0.028421 0.491741 0.864660 -0.102731
-0.035975 0.515791 -0.028421 0.442530 0.641822 -0.626284
-0.014211 0.515791 -0.030218 0.991714 0.038328 0.122616
-0.014211 0.510216 -0.028421 0.542431 0.806038 0.236796
-0.019608 0.515791 -0.028421 0.720755 0.322398 0.613654
-0.004737 0.515791 -0.030166 0.932700 0.194665 -0.303605
-0.004737 0.510018 -0.028421 0.551596 0.825950 -0.116393
-0.000669 0.515791 -0.028421 0.706727 0.276107 -0.651384
0.222631 0.515791 -0.032062 0.959522 0.213723 0.183413
0.222631 0.503137 -0.028421 0.635815 0.278433 0.719871
0.219966 0.515791 -0.028421 0.337072 0.024544 0.941159
0.228884 0.515791 -0.028421 0.223131 0.426048 -0.876753
0.232105 0.508996 -0.028421 0.750030 0.052900 -0.659285
0.251052 0.497434 -0.028421 0.085397 0.884362 0.458924
0.246149 0.515791 -0.028421 0.154743 0.316363 0.935932
0.264903 0.515791 -0.028421 0.262709 0.790108 -0.553816
0.279473 0.497715 -0.028421 -0.305727 0.741548 0.597191
0.272366 0.515791 -0.028421 -0.123329 0.754972 0.644056
0.298421 0.515791 -0.030324 -0.813159 0.471652 -0.341053
0.291272 0.515791 -0.028421 0.037437 0.767189 -0.640328
0.298421 0.503635 -0.028421 -0.444734 -0.885551 -0.134210
0.307895 0.507802 -0.028421 -0.620675 -0.777286 0.102904
0.317368 0.509943 -0.028421 -0.236370 -0.817349 0.525424
0.318779 0.515791 -0.028421 -0.175873 0.317742 0.931723
-0.184737 0.521730 -0.028421 -0.513494 -0.421534 0.747417
-0.184737 0.536844 -0.030312 -0.828686 -0.111191 0.548558
-0.175660 0.536844 -0.028421 -0.309037 -0.205227 0.928643
-0.080526 0.536844 -0.034553 0.486801 0.864789 0.123149
-0.061579 0.525628 -0.028421 0.430696 0.895937 0.108615
-0.033158 0.521569 -0.028421 0.573222 0.694191 -0.435334
-0.023684 0.536844 -0.029773 0.728367 0.421498 -0.540204
-0.023684 0.527021 -0.028421 0.829186 0.489283 -0.270284
-0.014211 0.523882 -0.028421 0.809172 -0.557409 0.185841
-0.020919 0.536844 -0.028421 0.724042 0.141290 -0.675130
-0.006030 0.536844 -0.028421 0.706643 0.169713 0.686916
-0.004737 0.536844 -0.029698 0.849912 -0.372755 0.372429
-0.003821 0.536844 -0.028421 0.610023 0.129365 -0.781752
0.219197 0.536844 -0.028421 0.075617 0.282551 0.956267
0.232105 0.523595 -0.028421 0.152312 0.787458 -0.597253
0.241579 0.531710 -0.028421 0.263339 0.815669 0.515108
0.270000 0.518654 -0.028421 0.042327 0.993629 0.104446
0.298421 0.518740 -0.028421 -0.240570 0.967207 -0.081461
0.307895 0.521001 -0.028421 -0.079352 0.993587 0.080552
0.317368 0.517217 -0.028421 -0.081505 0.960624 0.265627
-0.393158 0.557897 -0.033927 -0.810756 0.226720 0.539697
-0.385788 0.557897 -0.028421 -0.589882 0.318267 0.742122
-0.383684 0.555435 -0.028421 -0.599280 0.688056 0.409198
-0.374211 0.548526 -0.028421 -0.439862 0.878020 0.188686
-0.364737 0.550031 -0.028421 -0.419303 0.906804 -0.043488
-0.355263 0.550839 -0.028421 -0.483689 0.875095 -0.015958
-0.345789 0.550856 -0.028421 -0.429555 0.902076 0.041738
-0.336316 0.549333 -0.028421 -0.247414 0.960870 -0.124563
-0.326842 0.557897 -0.028613 0.097705 0.934059 -0.343492
-0.326973 0.557897 -0.028421 -0.496919 0.734994 -0.461363
-0.184737 0.557897 -0.031601 -0.490549 -0.263486 0.830624
-0.180951 0.557897 -0.028421 -0.417147 -0.158765 0.894864
-0.014211 0.545323 -0.028421 0.398187 0.912942 -0.089348
0.004737 0.557897 -0.034358 0.764595 -0.174680 -0.620388
0.004737 0.547500 -0.028421 0.300033 0.927400 -0.223405
0.014210 0.557897 -0.031450 0.889691 0.453030 0.056681
0.014210 0.547983 -0.028421 0.377625 0.925786 -0.017875
0.023684 0.557897 -0.033811 0.998286 -0.029566 -0.050511
0.023684 0.548196 -0.028421 0.449574 0.893231 -0.004640
0.033158 0.557897 -0.032004 0.925817 0.204979 -0.317564
0.033158 0.548102 -0.028421 0.461461 0.882202 -0.093666
0.042631 0.557897 -0.028929 0.799831 0.143357 -0.582854
0.042631 0.556275 -0.028421 0.562351 0.712999 -0.418800
0.043682 0.557897 -0.028421 0.821582 0.139431 -0.552776
0.214318 0.557897 -0.028421 0.197220 0.410198 0.890417
-0.402632 0.578949 -0.031411 -0.280417 0.959186 0.036441
-0.383684 0.578469 -0.028421 -0.686580 -0.202980 0.698146
-0.383684 0.578949 -0.028444 -0.398780 0.874681 0.275513
-0.383518 0.578949 -0.028421 -0.583262 0.799907 0.141261
-0.326842 0.558168 -0.028421 -0.655949 0.711725 -0.251354
-0.317368 0.563115 -0.028421 -0.557799 0.790252 -0.253698
-0.311577 0.578949 -0.028421 -0.510817 0.790623 -0.337612
-0.175263 0.578666 -0.028421 -0.029102 -0.619421 0.784519
-0.175263 0.578949 -0.028646 -0.275418 -0.768382 0.577697
-0.174833 0.578949 -0.028421 -0.020822 -0.964409 0.263595
0.004737 0.578949 -0.031530 0.956719 0.270991 -0.106082
0.014210 0.578949 -0.031450 0.999186 -0.039580 -0.007760
0.023684 0.578949 -0.031455 0.965303 0.243012 -0.095581
0.033158 0.578949 -0.029418 0.939943 0.113666 -0.321848
0.038111 0.578949 -0.028421 0.916760 0.147283 -0.371294
0.042631 0.564936 -0.028421 0.851914 -0.120361 -0.509663
0.203684 0.576878 -0.028421 0.187932 0.782255 0.593934
0.202938 0.578949 -0.028421 0.023393 0.912530 0.408341
0.213158 0.563658 -0.028421 0.230679 0.667765 0.707727
-0.412105 0.585713 -0.028421 -0.285242 0.951976 0.111262
-0.402632 0.580448 -0.028421 -0.184728 0.979493 -0.080428
-0.393158 0.585626 -0.028421 -0.178253 0.975567 0.128432
-0.383684 0.578975 -0.028421 -0.279374 0.949503 0.142809
-0.307895 0.580930 -0.028421 -0.263480 0.933247 -0.244188
-0.298421 0.593970 -0.028421 -0.298944 0.684894 -0.664494
-0.295685 0.600002 -0.028421 -0.067524 0.915256 -0.397173
-0.175263 0.600002 -0.034308 -0.618121 -0.706203 0.345259
-0.165790 0.587374 -0.028421 -0.139520 -0.671265 0.727968
-0.162110 0.600002 -0.028421 -0.411081 -0.543211 0.732076
0.014210 0.600002 -0.034652 0.207089 0.973658 0.095421
0.042631 0.600002 -0.034052 0.775193 0.390762 -0.496368
0.042631 0.583037 -0.028421 0.631977 0.754116 -0.178648
0.052105 0.600002 -0.033102 0.750246 0.541520 -0.379324
0.052105 0.579519 -0.028421 0.879780 0.309658 -0.360691
0.057670 0.600002 -0.028421 0.476467 0.389682 -0.788117
0.071052 0.600002 -0.029795 0.606318 0.695612 0.385360
0.071052 0.597948 -0.028421 0.252805 0.919044 0.302402
0.068036 0.600002 -0.028421 0.616089 0.584181 0.528363
0.080526 0.600002 -0.032329 0.947351 0.277876 -0.159095
0.080526 0.591876 -0.028421 0.236538 0.967787 -0.086240
0.087422 0.600002 -0.028421 0.312281 0.647938 -0.694735
0.175263 0.600002 -0.030259 -0.395860 0.827042 0.399119
0.183044 0.600002 -0.028421 -0.324112 0.927237 0.187572
0.184737 0.598595 -0.028421 -0.324802 0.834696 0.444731
0.194210 0.584255 -0.028421 -0.031348 0.941640 0.335160
-0.288947 0.602805 -0.028421 -0.080287 0.976381 -0.200584
-0.279474 0.610877 -0.028421 -0.187231 0.953108 -0.237759
-0.270000 0.610276 -0.028421 -0.223410 0.972407 -0.067172
-0.260526 0.615287 -0.028421 -0.429163 0.832454 -0.350486
-0.251053 0.621055 -0.031691 -0.469781 0.810669 -0.349460
-0.256160 0.621055 -0.028421 -0.380990 0.700587 -0.603344
-0.222632 0.621055 -0.032569 -0.289684 0.668851 -0.684633
-0.222632 0.620242 -0.028421 -0.887566 0.460679 0.000948
-0.223123 0.621055 -0.028421 -0.143800 0.118064 0.982539
-0.222304 0.621055 -0.028421 -0.079286 -0.060796 -0.994996
-0.156316 0.621055 -0.030072 0.422434 -0.906002 0.026642
-0.159718 0.621055 -0.028421 0.276741 -0.718374 0.638242
-0.153920 0.621055 -0.028421 0.182907 -0.791319 -0.583404
-0.146842 0.612493 -0.028421 0.064741 -0.974704 0.213916
-0.137369 0.621055 -0.030525 -0.061452 -0.993858 0.092035
-0.137969 0.621055 -0.028421 0.047293 -0.899685 0.433971
-0.136805 0.621055 -0.028421 -0.024063 -0.933072 -0.358883
-0.127895 0.615040 -0.028421 0.023441 -0.995321 -0.093735
-0.118421 0.620400 -0.028421 0.052278 -0.927760 0.369497
-0.118421 0.621055 -0.028829 -0.373813 -0.663794 0.647797
-0.117974 0.621055 -0.028421 -0.051059 -0.452014 0.890548
-0.090000 0.621055 -0.033623 -0.028433 -0.929225 -0.368418
-0.071053 0.621055 -0.031943 0.281337 -0.924366 0.257677
-0.033158 0.621055 -0.033936 0.911870 -0.366939 0.183982
-0.014211 0.621055 -0.032946 0.932933 -0.191070 -0.305170
-0.004737 0.621055 -0.032954 0.929479 -0.367457 0.032320
0.004737 0.621055 -0.033357 0.879058 -0.414203 0.235995
0.042631 0.621055 -0.030188 0.556807 -0.026848 -0.830208
0.052105 0.621055 -0.032504 0.721757 -0.668883 0.177940
0.054836 0.621055 -0.028421 0.475781 -0.222162 -0.851044
0.065271 0.621055 -0.028421 0.412399 0.063789 0.908768
0.080526 0.621055 -0.029441 0.687777 0.320423 -0.651377
0.083498 0.621055 -0.028421 0.866059 -0.136465 -0.480956
0.156316 0.621055 -0.033904 -0.454861 0.764873 0.456147
0.164750 0.621055 -0.028421 -0.319108 0.717210 0.619500
0.165789 0.619026 -0.028421 -0.198603 0.763196 0.614889
0.175263 0.602945 -0.028421 -0.265241 0.907308 0.326251
-0.251053 0.629025 -0.028421 -0.357211 0.925091 -0.128869
-0.241579 0.626734 -0.028421 -0.284273 0.946283 -0.154071
-0.232105 0.639465 -0.028421 -0.312195 0.800581 -0.511473
-0.223924 0.627832 -0.031462 -0.360863 0.690633 0.626740
-0.222632 0.631245 -0.028421 -0.345419 0.658600 -0.668530
-0.222632 0.642107 -0.029045 -0.428573 0.851250 -0.302817
-0.225367 0.642107 -0.028421 -0.380211 0.913467 -0.144973
-0.156316 0.624470 -0.028421 0.333462 -0.929425 -0.158023
-0.137369 0.621796 -0.028421 0.017062 -0.999527 -0.025568
-0.108947 0.632760 -0.028421 0.224527 -0.972269 0.065431
-0.108947 0.642107 -0.034398 -0.316573 -0.924137 -0.213897
-0.099474 0.633970 -0.028421 0.006145 -0.996459 -0.083860
-0.090000 0.625030 -0.028421 0.403678 -0.911093 0.083382
-0.080526 0.637345 -0.028421 0.267353 -0.925285 -0.269017
-0.071053 0.623865 -0.028421 0.292539 -0.755678 0.585979
-0.066433 0.642107 -0.028421 0.134014 -0.418531 0.898260
-0.045982 0.642107 -0.028421 0.239990 -0.453701 -0.858231
-0.042632 0.635433 -0.028421 0.664038 -0.588289 0.461487
-0.033158 0.642107 -0.032791 0.577913 -0.796347 0.178460
-0.039831 0.642107 -0.028421 0.405371 -0.425812 0.808924
-0.023684 0.642107 -0.031951 0.981448 -0.187389 -0.040557
-0.014211 0.642107 -0.032688 0.912383 -0.400003 0.086923
-0.004737 0.642107 -0.033258 0.955583 -0.293194 -0.029970
0.004737 0.642107 -0.031893 0.968646 -0.232578 0.087361
0.033158 0.642107 -0.031383 0.776540 -0.387316 -0.496963
0.042576 0.642107 -0.028421 0.374597 -0.779525 -0.502014
0.042631 0.641858 -0.028421 0.496611 -0.771152 -0.398375
0.042631 0.642107 -0.028631 0.291121 -0.816907 -0.497907
0.052105 0.630124 -0.028421 0.413769 -0.638847 -0.648591
0.071052 0.642107 -0.032856 0.857605 0.269516 0.438036
0.065819 0.642107 -0.028421 0.390622 -0.181854 0.902410
0.080526 0.642107 -0.030783 0.919763 -0.284111 -0.270770
0.090000 0.642107 -0.031901 0.039574 0.994743 0.094446
0.088080 0.642107 -0.028421 0.395175 0.620369 -0.677480
0.099474 0.642107 -0.032936 -0.257256 0.964586 0.058256
0.108947 0.642107 -0.030945 -0.513436 0.837557 0.186769
0.113448 0.642107 -0.028421 -0.295954 0.715022 0.633368
0.118421 0.635178 -0.028421 -0.266318 0.881788 0.389261
0.127895 0.630474 -0.028421 -0.186473 0.978104 0.092417
0.137368 0.633527 -0.028421 -0.242578 0.944796 -0.220265
0.146842 0.641495 -0.028421 -0.256925 0.962515 0.086917
0.156316 0.632780 -0.028421 -0.306683 0.869055 0.388187
-0.222632 0.642767 -0.028421 -0.211648 0.931829 -0.294788
-0.213158 0.653392 -0.028421 -0.217615 0.913417 -0.343967
-0.203684 0.657734 -0.028421 -0.294965 0.955375 -0.015944
-0.194211 0.653588 -0.028421 -0.272971 0.961633 -0.027371
-0.184737 0.660962 -0.028421 -0.445203 0.880467 -0.163010
-0.175263 0.659620 -0.028421 -0.350743 0.899557 -0.260340
-0.165790 0.663160 -0.034386 -0.365908 0.845276 -0.389384
-0.172482 0.663160 -0.028421 -0.394125 0.773561 -0.496254
-0.146842 0.663160 -0.034658 -0.652758 0.741904 0.153248
-0.127895 0.663160 -0.032788 -0.509359 0.849124 0.139791
-0.118421 0.663160 -0.032890 -0.665819 0.741492 -0.082913
-0.099474 0.663160 -0.032483 -0.673855 0.735933 -0.065741
-0.071053 0.663160 -0.031405 -0.960427 -0.036954 -0.276069
-0.061579 0.652848 -0.028421 0.086732 -0.930990 0.354590
-0.052105 0.656071 -0.028421 0.133695 -0.896239 -0.422945
-0.033158 0.652245 -0.028421 0.205387 -0.958789 0.196316
-0.023684 0.653646 -0.028421 0.158202 -0.987372 0.008309
-0.014211 0.653100 -0.028421 0.165978 -0.984688 -0.053295
-0.004737 0.651512 -0.028421 0.216050 -0.974646 0.058207
0.004737 0.654936 -0.028421 0.190269 -0.981676 -0.010507
0.014210 0.653264 -0.028421 0.175333 -0.984213 -0.024156
0.023684 0.653447 -0.028421 0.070292 -0.996802 -0.038023
0.033158 0.650549 -0.028421 0.347384 -0.919481 -0.184061
0.061579 0.663160 -0.031500 -0.718018 0.571653 0.397068
0.071052 0.660474 -0.028421 -0.494059 -0.859490 0.131085
0.071052 0.663160 -0.032650 -0.406216 0.865331 -0.293585
0.080526 0.651781 -0.028421 0.372198 -0.915300 -0.153932
0.087123 0.647048 -0.031851 -0.062613 0.857042 0.511428
0.083564 0.663160 -0.028421 -0.301987 0.437835 0.846820
0.090000 0.644056 -0.028421 -0.174540 0.968041 -0.180092
0.099474 0.645354 -0.028421 -0.192366 0.973716 -0.121954
0.108947 0.649575 -0.028421 -0.424075 0.855646 0.296700
-0.165790 0.671059 -0.028421 -0.325939 0.876757 -0.353640
-0.156316 0.678761 -0.028421 -0.340552 0.908155 -0.243473
-0.146842 0.681414 -0.028421 -0.372806 0.927430 0.029827
-0.137369 0.678717 -0.028421 -0.489511 0.830210 0.266702
-0.127895 0.669255 -0.028421 -0.464296 0.885667 -0.004828
-0.118421 0.677228 -0.028421 -0.441553 0.897162 -0.011449
-0.108947 0.673616 -0.028421 -0.311019 0.931114 0.190512
-0.099474 0.669743 -0.028421 -0.428241 0.896122 -0.116511
-0.090000 0.677455 -0.028421 -0.348313 0.936328 -0.044356
-0.080526 0.673976 -0.028421 -0.434934 0.888581 0.145797
-0.071053 0.669291 -0.028421 -0.461154 0.850741 -0.252144
-0.061579 0.684213 -0.030669 -0.538692 0.192564 -0.820202
-0.063743 0.684213 -0.028421 -0.530511 0.155926 -0.833214
0.042631 0.684213 -0.031636 -0.738420 0.410989 0.534626
0.049300 0.684213 -0.028421 -0.553191 0.586694 0.591414
0.052105 0.678850 -0.028421 -0.418088 0.760123 0.497408
0.061579 0.669149 -0.028421 -0.444815 0.871289 0.207351
0.071052 0.666574 -0.028421 -0.253638 0.949724 -0.183556
0.080526 0.673870 -0.028421 -0.385362 0.707170 0.592795
-0.067027 0.705265 -0.028421 -0.417779 0.025357 -0.908195
0.042631 0.705265 -0.029221 -0.427946 0.778290 0.459486
0.043497 0.705265 -0.028421 -0.368367 0.470080 0.802079
0.090000 0.705265 -0.028894 -0.799545 0.461405 0.384491
0.083373 0.705265 -0.028421 -0.963247 -0.135845 -0.231734
0.090000 0.703729 -0.028421 -0.808623 -0.049575 0.586235
0.090728 0.705265 -0.028421 -0.485896 0.357868 0.797393
-0.061579 0.726318 -0.029108 -0.473350 -0.537572 -0.697823
-0.062528 0.726318 -0.028421 -0.340375 -0.504927 -0.793217
0.042631 0.709198 -0.028421 -0.768098 0.372797 0.520623
0.038392 0.726318 -0.028421 -0.409336 -0.217046 0.886191
0.090000 0.706952 -0.028421 -0.434688 0.822978 0.365724
-0.080526 0.747371 -0.029666 -0.653751 -0.525156 -0.544813
-0.081688 0.747371 -0.028421 -0.385496 -0.015149 -0.922585
-0.080526 0.744574 -0.028421 -0.343652 -0.815308 -0.466021
-0.071053 0.741067 -0.028421 -0.187074 -0.856605 -0.480865
-0.071053 0.747371 -0.033295 -0.414025 -0.655322 -0.631772
0.041251 0.747371 -0.028421 -0.054717 -0.265426 0.962577
-0.080526 0.759264 -0.028421 -0.690432 0.449366 -0.566899
-0.071053 0.765546 -0.028421 -0.270538 0.235092 -0.933564
-0.070665 0.768423 -0.028421 -0.148763 -0.104075 -0.983381
0.042631 0.768423 -0.033922 -0.506763 -0.510583 0.694620
0.041132 0.768423 -0.028421 0.087641 -0.125321 0.988238
0.047562 0.768423 -0.028421 0.437781 -0.653470 -0.617515
0.052105 0.762851 -0.028421 0.029126 -0.616584 0.786750
0.053537 0.768423 -0.028421 0.105482 -0.362484 0.926002
-0.080526 0.789476 -0.028606 -0.559769 -0.700873 -0.442081
-0.080887 0.789476 -0.028421 -0.537548 -0.719953 -0.438987
-0.080526 0.786386 -0.028421 -0.588417 -0.527849 -0.612487
-0.071053 0.771342 -0.028421 -0.441481 -0.545707 -0.712249
-0.071053 0.789476 -0.033540 -0.400403 -0.195702 -0.895197
0.042631 0.776983 -0.028421 0.220901 -0.805442 0.549968
0.061579 0.789476 -0.033406 0.767940 0.209065 0.605442
0.057711 0.789476 -0.028421 0.179195 -0.112043 0.977413
0.071052 0.789476 -0.033139 0.978354 -0.195553 -0.067689
0.080526 0.789476 -0.030620 0.616847 0.110748 0.779253
-0.086080 0.810529 -0.028421 -0.266794 -0.194056 -0.944015
0.042631 0.805792 -0.028421 -0.056052 0.686089 0.725355
0.042035 0.810529 -0.028421 -0.107375 -0.028234 0.993818
0.044443 0.810529 -0.028421 -0.000681 -0.555776 -0.831332
0.055315 0.810529 -0.028421 -0.152256 -0.244601 0.957595
-0.088086 0.831581 -0.028421 -0.346305 -0.022801 -0.937845
0.042631 0.812052 -0.028421 -0.036559 -0.927105 0.373015
0.061579 0.826484 -0.028421 -0.031442 -0.954251 0.297348
0.071052 0.824401 -0.028421 0.018777 -0.986593 0.162115
0.080526 0.831581 -0.033605 0.130443 -0.532424 0.836366
0.079619 0.831581 -0.028421 0.072433 -0.790821 0.607746
-0.080526 0.852634 -0.031182 -0.848790 0.410211 -0.333590
-0.087685 0.852634 -0.028421 -0.604274 0.568319 -0.558450
-0.071053 0.852634 -0.032151 -0.780785 0.532174 -0.327360
0.061579 0.844037 -0.028421 0.035220 0.963820 0.264216
0.059415 0.852634 -0.028421 -0.215993 0.369592 0.903742
0.071052 0.852634 -0.030581 -0.272919 0.961495 0.032296
0.068953 0.852634 -0.028421 -0.112701 0.903584 -0.413321
0.072075 0.852634 -0.028421 -0.108094 0.699502 0.706408
-0.080526 0.862610 -0.028421 -0.538178 0.810145 -0.232443
-0.071053 0.864942 -0.028421 -0.425419 0.668861 -0.609626
-0.061579 0.873687 -0.034557 -0.476959 0.802969 -0.357424
-0.067853 0.873687 -0.028421 -0.124893 0.668115 -0.733501
0.052105 0.873687 -0.031972 -0.339869 0.857129 0.387064
0.056184 0.873687 -0.028421 -0.394463 0.724753 0.564918
0.071052 0.854196 -0.028421 -0.067403 0.976283 0.205736
-0.061579 0.883044 -0.028421 -0.180651 0.962705 -0.201405
-0.052105 0.883922 -0.028421 -0.332587 0.943053 0.006086
-0.042632 0.883104 -0.028421 -0.244283 0.969450 -0.022190
-0.033158 0.884369 -0.028421 -0.031838 0.970697 -0.238189
-0.024563 0.894739 -0.028421 -0.127996 0.826025 -0.548907
0.014210 0.894739 -0.031842 0.437743 0.872965 0.215205
0.014210 0.890990 -0.028421 -0.216546 0.957249 0.191787
0.011749 0.894739 -0.028421 -0.092310 0.792764 0.602498
0.023684 0.894739 -0.031259 0.270668 0.923427 0.272070
0.023684 0.891313 -0.028421 -0.141417 0.985149 0.097383
0.033158 0.888118 -0.028421 -0.198936 0.971769 0.126846
0.042631 0.885048 -0.028421 -0.303838 0.899852 0.312967
0.052105 0.876323 -0.028421 -0.192690 0.947524 0.255085
0.137368 0.894739 -0.029598 0.084134 -0.831509 0.549103
-0.023684 0.896270 -0.028421 0.102167 0.928175 -0.357845
-0.014211 0.896300 -0.028421 -0.104282 0.977283 -0.184510
-0.004737 0.903877 -0.028421 -0.214507 0.965304 -0.148913
0.004737 0.901779 -0.028421 -0.156361 0.970085 0.185704
0.134505 0.915792 -0.028421 -0.201024 -0.289020 -0.935979
0.137368 0.899476 -0.028421 0.633090 -0.351443 0.689699
0.139542 0.915792 -0.028421 0.068124 -0.583599 0.809179
0.128402 0.936845 -0.028421 0.069604 -0.047937 -0.996422
0.144759 0.936845 -0.028421 0.100715 -0.019994 0.994714
0.137368 0.949371 -0.028421 -0.026527 0.998713 0.043238
-0.232105 -0.968955 -0.022105 0.263493 0.627230 0.732908
-0.234832 -0.957895 -0.022105 0.041599 -0.017497 0.998981
-0.229064 -0.957895 -0.022105 0.024898 -0.172772 -0.984647
-0.219266 -0.957895 -0.022105 0.035298 0.237120 0.970839
-0.009805 -0.957895 -0.022105 -0.012447 0.295606 -0.955229
0.033158 -0.966530 -0.022105 -0.605474 -0.569591 0.555848
0.033158 -0.957895 -0.026777 -0.512934 0.251351 0.820805
0.035916 -0.957895 -0.022105 -0.142036 -0.022181 0.989613
-0.232105 -0.941842 -0.022105 -0.295540 0.235634 0.925815
-0.232105 -0.936842 -0.023194 -0.720746 0.297473 0.626128
-0.222632 -0.940201 -0.022105 0.255015 -0.063378 0.964858
-0.227966 -0.936842 -0.022105 0.219479 0.510683 0.831283
-0.004737 -0.936842 -0.025690 0.205806 0.521644 -0.827968
-0.005666 -0.936842 -0.022105 0.040896 0.326492 -0.944315
0.014210 -0.947281 -0.022105 0.013788 0.923869 0.382459
0.006766 -0.936842 -0.022105 0.070242 0.645052 0.760904
0.023684 -0.949871 -0.022105 -0.210910 0.972639 0.097422
0.033158 -0.950109 -0.022105 -0.018619 0.829973 0.557493
0.184737 -0.936842 -0.024857 -0.611808 -0.665837 -0.427027
0.179853 -0.936842 -0.022105 -0.441738 -0.635682 -0.633069
0.184737 -0.941191 -0.022105 -0.203074 -0.935013 -0.290709
0.194210 -0.945230 -0.022105 -0.098057 -0.994318 -0.041438
0.203684 -0.944429 -0.022105 -0.174424 -0.977066 0.122144
0.203684 -0.936842 -0.028098 -0.694528 -0.700621 0.163590
0.213158 -0.939613 -0.022105 -0.072725 -0.984093 -0.162087
0.213158 -0.936842 -0.025614 -0.460012 -0.701082 -0.544861
0.222631 -0.950186 -0.022105 -0.237660 -0.940617 -0.242399
