ply
format ascii 1.0
element vertex 836
property float x
property float y
property float z
property float nx
property float ny
property float nz
end_header
-0.023982 0.642107 0.085264 0.168241 0.574354 0.801132
-0.022750 0.642107 0.085264 -0.320166 0.873741 -0.366155
0.364737 0.623948 0.085264 -0.286326 0.086562 0.954214
0.365048 0.642107 0.085264 -0.387439 0.170397 0.906011
0.380192 0.642107 0.085264 -0.135445 -0.291373 -0.946972
0.383684 0.629627 0.085264 -0.419413 -0.904120 0.081606
0.389599 0.642107 0.085264 -0.346494 -0.644412 0.681671
0.410854 0.642107 0.085264 -0.076617 -0.552389 -0.830058
0.412105 0.630048 0.085264 -0.627383 -0.283495 0.725273
0.412758 0.642107 0.085264 -0.296685 0.000566 0.954975
-0.355280 0.663160 0.085264 0.229197 -0.120087 -0.965944
-0.355263 0.663095 0.085264 0.205349 -0.920069 -0.333622
-0.345789 0.663160 0.081949 0.540567 -0.834065 0.110105
-0.355202 0.663160 0.085264 0.048134 -0.902059 0.428921
-0.337586 0.663160 0.085264 0.175848 -0.917135 -0.357687
-0.336316 0.661952 0.085264 -0.069785 -0.929908 -0.361110
-0.326842 0.653869 0.085264 0.037837 -0.942789 -0.331236
-0.317368 0.651539 0.085264 0.048316 -0.971548 -0.231863
-0.307895 0.644055 0.085264 0.071556 -0.958941 -0.274431
-0.260526 0.643281 0.085264 -0.188223 -0.971531 0.143874
-0.052105 0.662148 0.085264 -0.384952 0.922068 0.040025
-0.052838 0.663160 0.085264 -0.352981 0.659380 0.663794
-0.042632 0.663160 0.083429 -0.653620 0.753759 0.068034
-0.050359 0.663160 0.085264 -0.789894 0.435652 -0.431595
-0.038279 0.663160 0.085264 -0.546349 0.658652 0.517378
-0.033158 0.656496 0.085264 -0.440350 0.812065 0.382940
-0.014211 0.651086 0.085264 -0.618638 0.707372 -0.341924
-0.004737 0.663160 0.083709 -0.748246 0.558314 -0.358348
-0.008449 0.663160 0.085264 -0.555306 0.589540 -0.586581
0.004737 0.663160 0.081822 -0.746314 0.646209 -0.159465
0.014210 0.663160 0.081147 -0.704351 0.700341 -0.115810
0.023684 0.663160 0.079977 -0.785585 0.446566 -0.428293
0.374210 0.656152 0.085264 -0.309067 -0.926344 -0.215325
0.393158 0.648902 0.085264 -0.378623 -0.776638 0.503466
0.402631 0.659631 0.085264 -0.470974 -0.831801 0.293754
0.402631 0.663160 0.082344 -0.705182 -0.697917 0.125022
0.412105 0.663160 0.080202 -0.648369 -0.151260 0.746149
0.415479 0.663160 0.085264 -0.202821 -0.169889 0.964366
-0.364737 0.684213 0.081884 0.629787 -0.628418 -0.456572
-0.359143 0.684213 0.085264 0.095610 -0.739657 -0.666158
-0.345789 0.673050 0.085264 0.126127 -0.950675 -0.283388
-0.061579 0.684213 0.081139 -0.852935 0.234536 0.466364
-0.052105 0.667644 0.085264 -0.808894 -0.255069 0.529746
-0.052105 0.684213 0.083930 -0.873236 0.394218 0.286447
-0.042632 0.681408 0.085264 -0.775789 0.219808 0.591469
-0.044105 0.684213 0.085264 -0.792546 0.517868 0.321999
-0.004737 0.668843 0.085264 -0.555155 0.795663 -0.242329
0.004737 0.671381 0.085264 -0.444104 0.892989 -0.073086
0.014210 0.673514 0.085264 -0.466401 0.841543 -0.272535
0.023684 0.684213 0.083542 -0.543998 0.752574 -0.371078
0.021321 0.684213 0.085264 -0.425289 0.547608 -0.720593
0.033158 0.684213 0.083761 -0.784968 0.532214 -0.317134
0.412105 0.684213 0.079534 -0.530356 -0.714780 0.455865
0.415558 0.684213 0.085264 -0.295117 -0.436486 0.849933
-0.412105 0.703521 0.085264 -0.024155 -0.987098 0.158288
-0.408620 0.705265 0.085264 0.105307 -0.972435 0.208039
-0.383684 0.705265 0.080516 -0.003698 -0.999722 0.023276
-0.386814 0.705265 0.085264 0.142493 -0.942821 -0.301305
-0.383684 0.702056 0.085264 0.794833 -0.476083 0.376279
-0.381897 0.705265 0.085264 0.404287 -0.736356 0.542524
-0.370367 0.705265 0.085264 0.257509 -0.607346 -0.751545
-0.364737 0.693383 0.085264 0.048497 -0.808016 -0.587161
-0.071053 0.705265 0.083857 -0.817378 0.254286 0.516945
-0.062163 0.705265 0.085264 -0.515720 0.847363 0.126527
-0.061579 0.705030 0.085264 -0.492988 0.823611 0.280405
-0.052105 0.690497 0.085264 -0.556560 0.743238 0.371264
0.023684 0.692429 0.085264 -0.708820 0.607619 -0.358294
0.033158 0.696295 0.085264 -0.657471 0.527914 -0.537623
0.042631 0.705265 0.080586 -0.716747 0.452259 -0.530788
0.035705 0.705265 0.085264 -0.490950 0.417105 -0.764847
-0.402632 0.707196 0.085264 0.012764 -0.997173 0.074054
-0.393158 0.707721 0.085264 0.047665 -0.995699 -0.079447
-0.374211 0.711392 0.085264 0.227573 -0.968158 -0.104310
-0.071053 0.726318 0.082005 -0.730960 -0.145351 0.666761
-0.066096 0.726318 0.085264 -0.492072 -0.066507 0.868010
0.042631 0.721104 0.085264 -0.701925 0.534143 -0.471161
0.052105 0.726318 0.082734 -0.791299 0.270632 -0.548274
0.045631 0.726318 0.085264 -0.631515 0.238407 -0.737802
-0.063288 0.747371 0.085264 -0.686891 -0.201420 0.698291
0.042631 0.747371 0.085199 -0.771297 0.388630 -0.504052
0.042545 0.747371 0.085264 -0.431330 0.552727 -0.713054
0.042631 0.746519 0.085264 -0.538141 0.419316 -0.731148
0.052105 0.747371 0.082360 -0.825012 0.069370 -0.560841
-0.061579 0.756861 0.085264 -0.644130 -0.213186 0.734607
-0.061579 0.768423 0.082921 -0.444109 -0.332001 0.832191
-0.060135 0.768423 0.085264 -0.436787 -0.246955 0.865003
0.042631 0.747610 0.085264 -0.597108 0.616558 -0.513145
0.052105 0.768423 0.083871 -0.631476 0.228286 -0.741029
0.050025 0.768423 0.085264 -0.641129 0.270675 -0.718115
-0.052426 0.789476 0.085264 -0.272250 -0.363843 0.890785
0.052105 0.788738 0.085264 -0.580647 0.359306 -0.730581
0.052200 0.789476 0.085264 -0.392850 0.275812 -0.877267
-0.053086 0.810529 0.085264 -0.163672 -0.267951 0.949428
0.052105 0.810529 0.084834 -0.657834 -0.313373 -0.684873
0.051651 0.810529 0.085264 -0.603696 -0.419815 -0.677722
0.052105 0.793004 0.085264 -0.607021 -0.044360 -0.793447
0.061579 0.810529 0.080078 -0.885857 -0.265664 -0.380369
-0.052105 0.815228 0.085264 -0.274142 -0.544362 0.792790
-0.044106 0.831581 0.085264 -0.331464 -0.783633 0.525405
0.014210 0.831581 0.080325 -0.261705 -0.956312 -0.130302
0.011194 0.831581 0.085264 -0.229333 -0.785795 -0.574397
0.014210 0.827486 0.085264 -0.421830 -0.881322 -0.212912
0.021324 0.831581 0.085264 -0.348583 -0.903916 0.247844
0.026561 0.831581 0.085264 -0.318122 -0.924189 -0.211361
0.033158 0.828397 0.085264 -0.448043 -0.870268 -0.204674
0.042631 0.823216 0.085264 -0.411472 -0.859583 -0.302998
-0.042632 0.833067 0.085264 -0.271524 -0.849234 0.452855
-0.033158 0.844663 0.085264 -0.224149 -0.944546 0.239978
-0.023684 0.845260 0.085264 -0.251505 -0.967834 0.006468
-0.014211 0.845029 0.085264 -0.188161 -0.982137 -0.001553
-0.004737 0.845256 0.085264 -0.208559 -0.971883 -0.109300
0.004737 0.839982 0.085264 -0.172022 -0.915052 -0.364812
0.023684 0.832852 0.085264 -0.266913 -0.959892 0.085821
-0.417202 -0.957895 0.091579 0.245295 0.263507 -0.932949
-0.355263 -0.957895 0.087459 -0.803675 0.577403 0.143919
-0.326842 -0.958753 0.091579 -0.438342 0.853941 0.280430
-0.327278 -0.957895 0.091579 -0.281105 0.685183 0.671940
-0.317368 -0.960847 0.091579 -0.434572 0.895945 -0.091809
-0.307895 -0.957895 0.090946 -0.444244 0.728548 -0.521408
-0.310561 -0.957895 0.091579 -0.709333 0.668749 -0.222759
-0.184737 -0.957895 0.085595 -0.790998 -0.486643 0.370812
-0.150199 -0.957895 0.091579 0.071159 -0.262029 0.962433
-0.136049 -0.957895 0.091579 0.185033 -0.715983 -0.673150
-0.091827 -0.957895 0.091579 0.007114 -0.424112 0.905582
-0.082009 -0.957895 0.091579 -0.059909 -0.469308 -0.881000
-0.080526 -0.962876 0.091579 0.051313 -0.998482 0.020000
-0.079427 -0.957895 0.091579 -0.247741 0.124972 0.960732
-0.004737 -0.957895 0.089245 -0.907048 -0.410351 -0.094213
-0.008000 -0.957895 0.091579 0.102948 -0.381016 -0.918819
-0.004737 -0.962849 0.091579 0.325227 -0.873113 -0.363182
0.004737 -0.964913 0.091579 0.264463 -0.818926 -0.509332
0.004737 -0.957895 0.090232 -0.102599 -0.628424 -0.771075
0.023684 -0.969876 0.091579 0.231955 -0.902865 0.361983
0.030108 -0.964629 0.088769 -0.197114 -0.817588 0.541014
0.033158 -0.961807 0.091579 0.132375 -0.844948 -0.518208
0.033158 -0.957895 0.089787 -0.278071 -0.921583 -0.270852
0.270000 -0.957895 0.085576 -0.974240 -0.170007 -0.148170
0.288947 -0.957895 0.085496 -0.842100 0.226742 0.489343
0.298421 -0.957895 0.085696 -0.737174 0.662655 0.132148
0.307895 -0.957895 0.087577 -0.932061 0.356710 0.063410
0.317368 -0.957895 0.086060 -0.914071 0.317714 -0.252055
-0.412105 -0.947088 0.091579 0.213455 0.949550 -0.229763
-0.412105 -0.936842 0.086707 0.740402 0.668335 -0.071646
-0.402632 -0.948273 0.091579 -0.083336 0.992327 -0.091336
-0.393158 -0.945511 0.091579 0.031020 0.983624 0.177541
-0.383684 -0.955314 0.091579 0.331458 0.891914 0.307613
-0.374211 -0.936842 0.088816 0.342190 0.919096 -0.195368
-0.374211 -0.948277 0.091579 0.275217 0.827223 -0.489855
-0.364737 -0.938797 0.091579 -0.314076 0.948538 0.040407
-0.355263 -0.943303 0.091579 -0.315611 0.942590 0.109149
-0.345789 -0.944810 0.091579 -0.149514 0.959190 -0.239999
-0.336316 -0.936842 0.090645 -0.432669 0.779596 0.452800
-0.337229 -0.936842 0.091579 -0.230366 0.755143 -0.613751
-0.335691 -0.936842 0.091579 -0.192808 0.434534 0.879776
-0.307895 -0.953399 0.091579 -0.702923 0.207829 -0.680225
-0.306467 -0.936842 0.091579 -0.525447 -0.424107 -0.737590
-0.146842 -0.944164 0.091579 0.088173 -0.938139 0.334844
-0.146842 -0.936842 0.086710 -0.566054 0.521211 0.638688
-0.137369 -0.954714 0.091579 0.078117 -0.738791 -0.669392
-0.092331 -0.936842 0.091579 0.127670 0.130766 0.983159
-0.080526 -0.950659 0.091579 -0.056924 0.747380 0.661954
-0.080526 -0.936842 0.090268 0.348195 0.000048 0.937422
-0.004737 -0.936842 0.088401 -0.145118 0.360611 -0.921358
-0.005835 -0.936842 0.091579 0.266846 0.004021 -0.963731
0.004737 -0.936842 0.086925 -0.211843 0.695450 -0.686638
0.288947 -0.936842 0.090562 -0.820366 0.023332 0.571363
0.295516 -0.936842 0.091579 -0.974985 0.181913 0.127721
0.298421 -0.937995 0.091579 -0.826190 0.562064 0.038654
0.307895 -0.938505 0.091579 -0.889767 0.369915 -0.267353
0.317368 -0.936842 0.087959 -0.882814 0.285359 -0.373109
0.309103 -0.936842 0.091579 -0.867724 -0.139840 -0.476970
0.326842 -0.936842 0.087319 -0.974836 0.184394 -0.125271
0.336316 -0.936842 0.086520 -0.938071 0.280181 -0.203770
-0.364737 -0.933573 0.091579 -0.808994 -0.547296 0.214465
-0.372735 -0.915789 0.091579 0.165422 -0.520607 -0.837618
-0.362770 -0.915789 0.091579 0.034909 0.262472 0.964308
-0.336316 -0.924123 0.091579 -0.431269 -0.519936 -0.737342
-0.335964 -0.915789 0.091579 -0.515630 -0.633754 -0.576613
-0.326842 -0.915789 0.086941 -0.846183 -0.242009 -0.474769
-0.326842 -0.927273 0.091579 -0.452835 -0.880346 -0.141177
-0.317368 -0.931707 0.091579 -0.226090 -0.968021 -0.108710
-0.307895 -0.933834 0.091579 -0.579517 -0.760820 -0.292083
-0.156316 -0.915789 0.088882 -0.643101 -0.109518 0.757910
-0.153047 -0.915789 0.091579 -0.531001 0.306668 0.789932
-0.146842 -0.930509 0.091579 -0.288589 0.913393 0.287107
-0.137369 -0.915789 0.087864 -0.579803 -0.685417 -0.440489
-0.141030 -0.915789 0.091579 -0.365920 -0.231765 -0.901326
-0.127895 -0.915789 0.088278 -0.438476 -0.898253 0.029673
-0.118421 -0.915789 0.089581 -0.487434 -0.862297 -0.137306
-0.090000 -0.915789 0.091511 0.488076 -0.596875 0.636807
-0.090010 -0.915789 0.091579 0.261835 -0.267345 0.927345
-0.089981 -0.915789 0.091579 0.446159 -0.651642 -0.613437
-0.080526 -0.932938 0.091579 0.381913 -0.806598 0.451155
-0.075010 -0.915789 0.091579 0.111681 -0.228132 0.967204
-0.004737 -0.915789 0.089267 -0.782484 0.575690 -0.237276
-0.007964 -0.915789 0.091579 -0.108229 0.276329 -0.954950
0.001325 -0.915789 0.091579 -0.530901 0.355366 0.769323
0.004737 -0.927202 0.091579 0.280275 0.276071 -0.919364
0.006143 -0.915789 0.091579 0.027277 0.158926 -0.986914
0.288947 -0.915789 0.087783 -0.924186 -0.064001 0.376542
0.298421 -0.935170 0.091579 -0.882081 -0.464264 0.079946
0.298421 -0.915789 0.088372 -0.940705 -0.336564 0.042420
0.307895 -0.933640 0.091579 -0.920733 -0.371386 -0.119676
0.307895 -0.915789 0.088482 -0.935726 -0.338646 -0.098673
0.317368 -0.915789 0.087603 -0.985310 -0.162698 -0.051898
0.326842 -0.915789 0.087553 -0.984742 -0.161727 -0.064241
0.336316 -0.915789 0.086841 -0.972789 0.078216 -0.218092
0.364737 -0.915789 0.086722 -0.989302 0.000726 -0.145883
-0.374211 -0.894737 0.090609 -0.972478 -0.225455 -0.058786
-0.378755 -0.894737 0.091579 -0.737786 -0.509760 -0.442512
-0.374211 -0.909457 0.091579 -0.471898 -0.386670 -0.792338
-0.364737 -0.894737 0.090562 -0.792842 -0.090511 0.602668
-0.363593 -0.894737 0.091579 -0.655458 -0.140203 0.742104
-0.336316 -0.894737 0.089653 -0.892547 0.447323 -0.057117
-0.342730 -0.894737 0.091579 -0.829415 -0.002805 -0.558626
-0.336316 -0.914372 0.091579 -0.712589 -0.380328 -0.589549
-0.326842 -0.894737 0.090325 -0.789644 0.242150 -0.563760
-0.307895 -0.894737 0.089607 -0.756195 -0.546991 -0.359123
-0.146842 -0.900676 0.091579 -0.121058 -0.882454 -0.454554
-0.090000 -0.915739 0.091579 0.576138 -0.799224 0.171193
-0.083969 -0.894737 0.091579 0.152870 -0.760311 0.631314
-0.080526 -0.894737 0.087899 0.032528 -0.831023 0.555286
-0.080526 -0.901621 0.091579 -0.108718 0.296077 0.948957
-0.004737 -0.908924 0.091579 -0.251333 0.934216 -0.253123
0.009266 -0.894737 0.091579 -0.056771 -0.464854 -0.883565
0.270000 -0.894737 0.086639 -0.888610 0.171700 0.425313
0.279473 -0.894737 0.087152 -0.979511 0.182097 0.086020
0.288947 -0.894737 0.087791 -0.997881 0.062237 -0.018957
0.298421 -0.894737 0.086828 -0.984288 0.142891 -0.103725
0.307895 -0.894737 0.086619 -0.999956 -0.003703 0.008623
0.317368 -0.894737 0.086916 -0.983438 -0.180776 -0.013039
0.326842 -0.894737 0.085994 -0.990070 -0.139764 0.015051
0.336316 -0.894737 0.087047 -0.972738 -0.231886 -0.002985
0.345789 -0.894737 0.086050 -0.970439 -0.158686 -0.181843
-0.412105 -0.878108 0.091579 -0.519501 -0.854457 0.004710
-0.412105 -0.873684 0.088362 -0.936082 0.058778 -0.346836
-0.406646 -0.873684 0.091579 -0.834051 -0.422909 0.354268
-0.374211 -0.873684 0.087237 -0.928933 0.369878 -0.016551
-0.382942 -0.873684 0.091579 -0.665682 -0.292531 -0.686508
-0.364737 -0.873684 0.089719 -0.815096 -0.068541 0.575257
-0.362607 -0.873684 0.091579 -0.717578 0.015794 0.696299
-0.336316 -0.885548 0.091579 -0.856110 0.489044 -0.167066
-0.326842 -0.873684 0.090528 -0.423272 0.428818 -0.798095
-0.328859 -0.873684 0.091579 -0.721086 0.554859 -0.414929
-0.080526 -0.891145 0.091579 0.175023 -0.956259 0.234382
-0.071053 -0.888640 0.091579 -0.248518 -0.924506 0.289011
-0.061579 -0.876486 0.091579 -0.207110 -0.934680 0.288928
-0.052105 -0.874958 0.091579 -0.323134 -0.896809 0.302189
-0.052105 -0.873684 0.088476 -0.118504 -0.929462 0.349367
-0.051201 -0.873684 0.091579 -0.374498 -0.771910 0.513719
-0.033158 -0.873684 0.089479 -0.371007 -0.860897 -0.348152
-0.035721 -0.873684 0.091579 -0.305439 -0.791701 -0.529071
-0.033158 -0.876606 0.091579 -0.292537 -0.854865 -0.428519
-0.023684 -0.884349 0.091579 -0.190091 -0.975366 -0.111924
-0.023684 -0.873684 0.085498 -0.561556 -0.827130 0.022601
-0.014211 -0.881604 0.091579 -0.174342 -0.960745 -0.215811
-0.014211 -0.873684 0.087570 -0.469233 -0.797946 -0.378289
-0.004737 -0.889974 0.091579 -0.063439 -0.996077 -0.061699
0.004737 -0.888270 0.091579 -0.133907 -0.968866 -0.208249
0.251052 -0.873684 0.085879 -0.862245 0.487700 0.136683
0.270000 -0.873684 0.089616 -0.716868 0.558139 0.417828
0.279473 -0.873684 0.089538 -0.810617 0.584364 -0.037663
0.288947 -0.873684 0.088677 -0.829036 0.558313 0.031410
0.298421 -0.873684 0.091487 -0.675910 0.723382 -0.140944
0.307895 -0.873684 0.087707 -0.896558 0.238702 -0.373102
0.317368 -0.873684 0.085361 -0.951922 -0.117021 -0.283107
-0.412105 -0.857976 0.091579 -0.715093 0.686132 -0.133659
-0.383684 -0.852631 0.087252 -0.621691 0.752387 0.217750
-0.387110 -0.852631 0.091579 -0.421627 0.752728 -0.505600
-0.383684 -0.868730 0.091579 -0.919134 -0.120461 -0.375076
-0.374211 -0.852631 0.090850 -0.670522 0.724176 0.161148
-0.369462 -0.852631 0.091579 -0.752686 0.635799 0.170950
-0.364737 -0.860067 0.091579 -0.746584 0.329088 0.578198
-0.326842 -0.871302 0.091579 -0.572859 0.559870 -0.598647
-0.323648 -0.852631 0.091579 -0.254151 0.152832 -0.955013
-0.071053 -0.852631 0.085945 -0.850340 0.180004 0.494490
-0.061579 -0.852631 0.088603 -0.728760 -0.530459 -0.433037
-0.042632 -0.860934 0.091579 -0.105635 -0.990745 -0.085239
0.241579 -0.852631 0.088048 -0.714004 0.274581 0.644052
0.246203 -0.852631 0.091579 -0.390717 0.625446 0.675394
0.251052 -0.857951 0.091579 -0.558362 0.819570 0.128600
0.260526 -0.852631 0.091520 -0.575232 0.817498 -0.028390
0.260403 -0.852631 0.091579 -0.501248 0.764598 -0.405142
0.260663 -0.852631 0.091579 -0.732418 0.462956 0.499235
0.270000 -0.867070 0.091579 -0.699492 0.644099 0.309592
0.279473 -0.863824 0.091579 -0.675302 0.732738 -0.084034
0.288947 -0.862167 0.091579 -0.563752 0.759200 0.325268
0.298421 -0.873432 0.091579 -0.703159 0.635047 -0.319818
0.307895 -0.852631 0.090250 -0.333382 0.610880 -0.718110
0.306373 -0.852631 0.091579 -0.231376 0.356975 -0.905005
0.317368 -0.852631 0.088181 -0.841390 0.537151 -0.059435
0.326842 -0.853451 0.091579 -0.418851 0.895780 -0.148805
0.324778 -0.852631 0.091579 -0.719346 0.537988 0.439442
0.336316 -0.852631 0.087344 -0.763616 0.498737 -0.410062
0.327654 -0.852631 0.091579 -0.334014 0.289574 -0.896984
0.355263 -0.852631 0.085963 -0.892480 0.297188 0.339350
0.364737 -0.852631 0.087232 -0.973652 0.211651 0.084890
0.374210 -0.852631 0.087517 -0.987500 0.125036 -0.095966
0.383684 -0.852631 0.085395 -0.865863 0.135371 -0.481618
-0.383684 -0.850002 0.091579 -0.268282 0.958127 -0.100091
-0.374211 -0.851107 0.091579 -0.210306 0.972297 0.102032
-0.317368 -0.832202 0.091579 -0.157484 0.503606 -0.849459
-0.317037 -0.831579 0.091579 -0.155621 0.131556 -0.979017
-0.080526 -0.834146 0.091579 -0.118139 0.949510 0.290643
-0.082355 -0.831579 0.091579 -0.166628 0.454938 0.874795
-0.071053 -0.831579 0.087820 0.738196 0.567006 -0.365472
-0.071053 -0.833591 0.091579 -0.261657 0.965122 0.008706
-0.061579 -0.837032 0.091579 -0.119218 0.992470 -0.028130
-0.054557 -0.831579 0.091579 -0.491703 0.508345 -0.706975
0.245861 -0.831579 0.091579 -0.598565 -0.396714 0.695944
0.260526 -0.831579 0.090179 -0.706995 -0.563328 -0.427575
0.259234 -0.831579 0.091579 -0.762236 -0.272544 -0.587126
0.262636 -0.831579 0.091579 -0.808392 -0.330420 0.487160
0.307895 -0.831579 0.090521 -0.432434 -0.815510 -0.384635
0.303681 -0.831579 0.091579 0.087451 -0.977753 -0.190663
0.326842 -0.850639 0.091579 -0.315006 -0.926184 -0.207255
-0.364737 -0.810526 0.091346 -0.690034 -0.704626 -0.165396
-0.365105 -0.810526 0.091579 -0.582399 -0.448531 -0.677961
-0.364737 -0.811033 0.091579 -0.508148 -0.827157 -0.239993
-0.363150 -0.810526 0.091579 -0.613848 -0.777104 0.138927
-0.335762 -0.810526 0.091579 -0.124407 -0.962764 -0.240016
-0.326842 -0.815226 0.091579 -0.367422 -0.873607 -0.319079
-0.317368 -0.830289 0.091579 -0.088632 -0.549097 -0.831046
-0.080526 -0.826708 0.091579 -0.122900 -0.806326 0.578561
-0.071053 -0.828420 0.091579 -0.030462 -0.999265 -0.023263
-0.061579 -0.826287 0.091579 -0.591644 -0.806131 -0.010472
0.251052 -0.822821 0.091579 -0.495902 -0.791718 0.356741
0.251052 -0.810526 0.085794 -0.426850 -0.865673 0.261551
0.266622 -0.810526 0.091579 -0.726063 -0.458303 0.512631
0.279473 -0.810526 0.087095 -0.732683 -0.353911 -0.581311
0.273840 -0.810526 0.091579 -0.681883 -0.344152 -0.645442
0.279473 -0.826690 0.091579 -0.810846 -0.537390 -0.231821
0.288947 -0.829296 0.091579 -0.414690 -0.908426 -0.052856
0.298421 -0.829588 0.091579 -0.042072 -0.990472 -0.131129
0.307895 -0.810526 0.085565 -0.921098 -0.191695 -0.338867
-0.412105 -0.789473 0.090292 0.501911 -0.278301 0.818923
-0.417013 -0.789473 0.091579 0.273431 -0.908218 0.316821
-0.393158 -0.789473 0.089496 -0.818552 -0.296105 0.492234
-0.395102 -0.789473 0.091579 -0.424704 -0.199782 -0.883014
-0.393158 -0.793628 0.091579 -0.788188 -0.282171 -0.546936
-0.390922 -0.789473 0.091579 -0.447230 -0.289913 0.846130
-0.364737 -0.789473 0.088456 -0.652441 -0.591218 -0.474112
-0.369859 -0.789473 0.091579 -0.459867 -0.647046 -0.608155
-0.355263 -0.805325 0.091579 -0.635130 -0.685714 0.355537
-0.349174 -0.789473 0.091579 -0.476124 -0.661067 0.579911
-0.344848 -0.789473 0.091579 -0.329754 -0.540265 -0.774193
-0.336316 -0.810222 0.091579 -0.184294 -0.955939 -0.228509
0.270000 -0.803005 0.091579 -0.636778 -0.649527 0.415486
0.270000 -0.789473 0.088152 -0.666341 -0.506993 0.546761
0.279473 -0.789473 0.087007 -0.474153 -0.713305 -0.516115
0.298421 -0.795516 0.091579 -0.143302 0.977492 0.154832
0.293166 -0.789473 0.091579 -0.086217 0.076402 0.993343
0.307895 -0.791771 0.091579 -0.045580 0.946977 -0.318052
0.309795 -0.789473 0.091579 -0.149179 0.487636 -0.860207
0.393158 -0.789473 0.085702 -0.751177 0.642426 0.151730
0.402631 -0.789473 0.086248 -0.595118 0.802111 -0.049518
-0.412105 -0.784628 0.091579 -0.279066 -0.586338 0.760480
-0.412105 -0.768421 0.090049 -0.571277 -0.769509 0.285481
-0.405773 -0.768421 0.091579 -0.863647 -0.304549 0.401701
-0.393158 -0.768421 0.086904 -0.824202 0.074833 -0.561330
-0.400831 -0.768421 0.091579 -0.701060 0.486769 -0.521124
-0.383684 -0.778249 0.091579 -0.345047 -0.936947 -0.055434
-0.374211 -0.784799 0.091579 -0.290702 -0.922272 -0.254768
-0.345789 -0.786150 0.091579 -0.369602 -0.861236 -0.348807
0.298421 -0.779824 0.091579 -0.229005 -0.885796 0.403637
0.298421 -0.768421 0.086801 -0.747684 -0.442941 0.494745
0.307895 -0.781599 0.091579 -0.510405 -0.763245 -0.396161
0.307895 -0.768421 0.089351 -0.906023 -0.119049 -0.406140
0.317368 -0.768421 0.085544 -0.837339 0.024458 -0.546137
0.393158 -0.768421 0.087829 -0.880310 0.397528 0.258892
0.402631 -0.768421 0.088899 -0.802886 0.594526 -0.043735
0.418487 -0.768421 0.091579 -0.216762 0.490338 0.844146
-0.406647 -0.747368 0.091579 -0.402201 -0.450634 0.796972
-0.393158 -0.747368 0.090052 -0.603078 -0.659115 -0.449293
-0.395014 -0.747368 0.091579 -0.611468 -0.534357 -0.583583
-0.383684 -0.747368 0.090603 -0.626682 -0.635042 -0.451654
0.307895 -0.747368 0.089201 -0.682264 -0.727828 0.069158
0.317368 -0.747368 0.086237 -0.828171 0.520283 0.208418
0.326842 -0.757960 0.091579 -0.243412 0.756290 0.607269
0.324231 -0.747368 0.091579 -0.421482 0.126480 0.897973
0.336316 -0.758867 0.091579 -0.009897 0.900378 -0.434997
0.342116 -0.747368 0.091579 0.017417 0.663809 -0.747699
0.355263 -0.753602 0.091579 -0.052392 0.949657 0.308879
0.350854 -0.747368 0.091579 0.078068 0.731528 0.677327
0.364737 -0.753483 0.091579 0.000766 0.999593 -0.028518
0.374210 -0.751929 0.091579 -0.025226 0.999472 0.020488
0.383684 -0.754308 0.091579 -0.103402 0.994273 0.027001
0.393158 -0.753586 0.091579 -0.239428 0.950586 0.197636
0.402631 -0.762182 0.091579 -0.056241 0.995328 0.078482
0.412105 -0.755850 0.091579 0.042751 0.996635 0.069941
-0.402632 -0.742029 0.091579 -0.206251 -0.968573 0.139024
0.317368 -0.726315 0.087850 -0.517438 -0.264284 0.813887
0.322372 -0.726315 0.091579 -0.368453 0.247265 0.896160
0.345789 -0.733781 0.091579 0.173810 0.889967 -0.421602
0.345789 -0.726315 0.085600 0.796573 0.489228 -0.355144
0.317368 -0.705263 0.089130 -0.694851 -0.284086 0.660664
0.320852 -0.705263 0.091579 -0.305726 -0.062755 0.950049
0.326415 -0.684210 0.091579 -0.165727 -0.673204 0.720646
0.326842 -0.684210 0.091177 0.133198 -0.847347 0.514064
0.326842 -0.683793 0.091579 0.135125 -0.937538 0.320568
0.336316 -0.675454 0.091579 -0.017916 -0.955253 0.295248
0.345789 -0.670267 0.091579 -0.201803 -0.879204 0.431597
0.350249 -0.663157 0.091579 -0.506240 -0.307577 0.805678
0.345789 -0.643228 0.091579 -0.402900 0.204874 0.892019
0.345536 -0.642105 0.091579 -0.299014 -0.666324 0.683083
0.345789 -0.641925 0.091579 -0.147522 -0.963971 0.221353
0.355263 -0.637763 0.091579 -0.125872 -0.986555 0.104234
0.364737 -0.638458 0.091579 -0.118519 -0.983190 0.138890
0.374210 -0.632295 0.091579 -0.070168 -0.994335 -0.079838
0.383684 -0.637400 0.091579 -0.018206 -0.999675 0.017842
0.393158 -0.632907 0.091579 0.020784 -0.967108 0.253516
0.402631 -0.623360 0.091579 -0.040564 -0.962512 -0.268187
0.412105 -0.638740 0.091579 0.041585 -0.990415 -0.131715
-0.127895 -0.368420 0.085334 -0.897583 0.429756 -0.098257
-0.156316 -0.347368 0.085936 -0.661473 0.688119 0.298238
-0.127895 -0.347368 0.088129 -0.876466 0.475956 -0.072617
-0.194211 -0.326315 0.086806 -0.943754 0.173760 0.281312
-0.184737 -0.326315 0.085883 -0.837255 0.540279 -0.084276
-0.175263 -0.326315 0.085544 -0.821454 0.566063 0.069181
-0.165790 -0.326315 0.088757 -0.816403 0.457118 0.352887
-0.156316 -0.326315 0.090637 -0.916927 0.390366 0.082827
-0.146842 -0.326315 0.089899 -0.944815 0.317282 -0.081593
-0.137369 -0.326315 0.089857 -0.913309 0.396652 0.092377
-0.127895 -0.326315 0.091461 -0.904757 0.425727 0.013083
-0.118421 -0.326315 0.089679 -0.857880 0.341026 -0.384374
-0.108947 -0.326315 0.085648 -0.814642 0.455264 -0.359295
-0.194211 -0.305262 0.085421 -0.742560 0.361213 0.564030
-0.184737 -0.305262 0.086829 -0.855708 0.355283 0.376215
-0.176417 -0.305262 0.091579 -0.692873 0.282261 0.663518
-0.175263 -0.307084 0.091579 -0.748159 0.582762 0.317249
-0.165790 -0.311986 0.091579 -0.669911 0.710413 0.215716
-0.156316 -0.319196 0.091579 -0.869680 0.488778 -0.068943
-0.146842 -0.306549 0.091579 -0.804719 0.592103 0.042916
-0.137369 -0.314880 0.091579 -0.819747 0.525885 0.226847
-0.127895 -0.325460 0.091579 -0.870482 0.490443 -0.041553
-0.118421 -0.305262 0.091386 -0.843375 0.333013 -0.421688
-0.118915 -0.305262 0.091579 -0.823616 0.319646 -0.468489
-0.108947 -0.305262 0.087584 -0.829748 0.318258 -0.458509
-0.194211 -0.289431 0.091579 -0.793190 0.603822 0.079051
-0.196657 -0.284210 0.091579 -0.541201 0.436396 0.718791
-0.184737 -0.284210 0.089577 -0.881417 0.467060 -0.070425
-0.189946 -0.284210 0.091579 -0.830650 0.319843 -0.455764
-0.176943 -0.284210 0.091579 -0.915034 0.236825 0.326536
-0.146842 -0.284210 0.090988 -0.997068 0.058308 0.049562
-0.148989 -0.284210 0.091579 -0.889835 0.063010 -0.451910
-0.146842 -0.300963 0.091579 -0.974380 -0.150824 -0.166840
-0.141805 -0.284210 0.091579 -0.968723 -0.137922 0.206284
-0.118421 -0.302615 0.091579 -0.856341 0.209323 -0.472084
-0.108947 -0.284210 0.090150 -0.933046 0.299971 -0.198603
-0.114171 -0.284210 0.091579 -0.878997 0.137718 -0.456506
-0.099474 -0.284210 0.091317 -0.978970 0.170903 -0.111400
-0.090000 -0.284210 0.087068 -0.659277 0.460283 -0.594552
-0.199342 -0.263157 0.091579 -0.639226 -0.107971 0.761401
-0.184737 -0.263157 0.090237 -0.875420 0.044426 -0.481317
-0.187145 -0.263157 0.091579 -0.783975 -0.014349 -0.620627
-0.175263 -0.274937 0.091579 -0.971752 -0.057606 0.228864
-0.175263 -0.263157 0.090605 -0.864906 0.480477 0.145185
-0.171682 -0.263157 0.091579 -0.963080 0.156740 0.218881
-0.146842 -0.270595 0.091579 -0.954698 0.047215 -0.293807
-0.144427 -0.263157 0.091579 -0.974691 -0.024607 -0.222199
-0.137369 -0.263157 0.090964 -0.979900 0.126481 0.154269
-0.137369 -0.276724 0.091579 -0.954570 -0.127436 0.269364
-0.135412 -0.263157 0.091579 -0.694802 0.067558 0.716021
-0.108947 -0.265384 0.091579 -0.998702 0.036045 -0.035983
-0.099474 -0.267843 0.091579 -0.914632 0.370454 -0.161904
-0.090000 -0.263157 0.090064 -0.761265 0.182662 -0.622181
-0.098774 -0.263157 0.091579 -0.831142 0.535231 -0.150768
-0.195992 -0.242104 0.091579 -0.606882 0.089179 0.789773
-0.184737 -0.242104 0.088802 -0.788411 0.591087 0.170366
-0.189438 -0.242104 0.091579 -0.862883 0.303394 -0.404209
-0.181321 -0.242104 0.091579 -0.751316 0.358199 0.554272
-0.175263 -0.260152 0.091579 -0.896160 0.417657 0.149868
-0.156316 -0.242104 0.089681 -0.822469 0.564705 -0.068212
-0.160502 -0.242104 0.091579 -0.696984 0.505831 -0.508279
-0.156316 -0.250162 0.091579 -0.968013 -0.202969 -0.147490
-0.148532 -0.242104 0.091579 -0.917962 -0.056531 0.392619
-0.137369 -0.252765 0.091579 -0.951978 0.167516 0.256272
-0.090000 -0.257417 0.091579 -0.603787 0.430193 -0.671100
-0.087230 -0.242104 0.091579 -0.397970 0.349027 -0.848410
-0.213158 -0.221052 0.088563 -0.764046 0.290848 0.575883
-0.207279 -0.221052 0.091579 -0.733928 0.158746 0.660415
-0.203684 -0.227516 0.091579 -0.701021 0.545228 0.459669
-0.184737 -0.234469 0.091579 -0.851584 0.504613 0.142024
-0.156316 -0.237390 0.091579 -0.552066 0.833413 -0.025398
-0.080526 -0.221052 0.090725 -0.637698 0.533373 -0.555746
-0.081707 -0.221052 0.091579 -0.400184 0.496519 -0.770274
-0.071053 -0.221052 0.088203 -0.671455 0.682494 -0.288703
-0.061579 -0.221052 0.085474 -0.658020 0.533556 -0.531344
-0.203684 -0.205880 0.091579 -0.678485 -0.424510 0.599541
-0.203684 -0.199999 0.089575 -0.635517 -0.366934 0.679322
-0.199315 -0.199999 0.091579 -0.876706 -0.377231 0.298468
-0.184737 -0.199999 0.090743 -0.841722 -0.510113 0.176884
-0.188468 -0.199999 0.091579 -0.905542 -0.279527 -0.319153
-0.184737 -0.205165 0.091579 -0.835478 -0.549174 -0.019619
-0.182182 -0.199999 0.091579 -0.850871 -0.310814 0.423572
-0.080526 -0.218047 0.091579 -0.468392 0.753618 -0.461160
-0.071053 -0.205698 0.091579 -0.529276 0.759324 -0.378542
-0.061579 -0.199999 0.091043 -0.641583 0.705629 -0.300763
-0.063457 -0.199999 0.091579 -0.446614 0.863144 -0.235622
-0.052105 -0.199999 0.085329 -0.479216 0.737778 -0.475431
-0.203684 -0.178946 0.089028 -0.808692 0.050389 0.586071
-0.197312 -0.178946 0.091579 -0.864193 -0.102828 0.492542
-0.184737 -0.178946 0.088829 -0.867159 0.053011 0.495203
-0.190218 -0.178946 0.091579 -0.874372 -0.160592 -0.457912
-0.182433 -0.178946 0.091579 -0.521579 0.085115 0.848947
-0.061579 -0.198978 0.091579 -0.413725 0.819536 -0.396474
-0.052105 -0.179610 0.091579 -0.377643 0.752892 -0.539016
-0.042632 -0.178946 0.086347 -0.577256 0.286861 -0.764517
-0.051825 -0.178946 0.091579 -0.586091 0.563248 -0.582451
-0.393158 -0.160318 0.091579 -0.053025 0.974851 0.216456
-0.399263 -0.157894 0.091579 -0.114676 0.747950 0.653774
-0.383684 -0.165005 0.091579 0.012824 0.988030 0.153725
-0.374211 -0.166124 0.091579 -0.083396 0.995859 0.036181
-0.364737 -0.166320 0.091579 -0.188075 0.924178 -0.332451
-0.360021 -0.157894 0.091579 0.035580 -0.033981 -0.998789
-0.307895 -0.157894 0.085393 -0.482385 0.773315 -0.411448
-0.213158 -0.157894 0.085880 -0.930887 -0.033131 0.363803
-0.203684 -0.157894 0.089827 -0.731322 -0.299010 0.612994
-0.194989 -0.157894 0.091579 -0.981038 0.044989 0.188524
-0.184737 -0.157894 0.086568 -0.941443 0.294650 -0.163913
-0.193962 -0.157894 0.091579 -0.781374 -0.207692 -0.588489
-0.175263 -0.161972 0.091579 -0.535364 -0.779444 0.325349
-0.175263 -0.157894 0.090329 -0.931972 -0.119518 0.342263
-0.166638 -0.157894 0.091579 -0.793781 -0.472394 0.383087
-0.049289 -0.157894 0.091579 -0.146860 0.250255 -0.956977
-0.393158 -0.146381 0.091579 -0.019713 -0.963495 0.266998
-0.383684 -0.149226 0.091579 -0.115535 -0.991688 -0.056628
-0.374211 -0.150509 0.091579 -0.199257 -0.955320 0.218315
-0.367036 -0.136841 0.091579 -0.465684 0.039535 0.884067
-0.363808 -0.136841 0.091579 -0.205062 -0.133102 -0.969656
-0.307895 -0.136841 0.087303 -0.970771 -0.046749 -0.235409
-0.213158 -0.136841 0.085302 -0.928127 -0.363862 -0.078640
-0.194211 -0.156233 0.091579 -0.976658 -0.212497 -0.031370
-0.194211 -0.136841 0.090383 -0.790486 0.438265 0.427850
-0.184737 -0.143224 0.091579 -0.874909 0.468411 0.122990
-0.190233 -0.136841 0.091579 -0.901892 0.163240 0.399928
-0.175263 -0.146926 0.091579 -0.765281 0.604934 0.220001
-0.042632 -0.136841 0.090049 -0.407835 0.453750 -0.792327
-0.043750 -0.136841 0.091579 -0.341589 0.476582 -0.810053
-0.393158 -0.133226 0.091579 0.018072 0.980357 0.196401
-0.399207 -0.115788 0.091579 -0.028934 0.228369 0.973145
-0.383684 -0.125943 0.091579 -0.108514 0.987907 -0.110747
-0.374211 -0.126521 0.091579 -0.194171 0.970164 0.145189
-0.356443 -0.115788 0.091579 -0.378828 -0.785387 -0.489548
-0.345789 -0.115788 0.087064 -0.292452 -0.875657 0.384314
-0.342608 -0.115788 0.091579 -0.460219 0.080800 0.884121
-0.336316 -0.128727 0.091579 -0.103420 0.872259 0.477983
-0.326842 -0.115788 0.089727 -0.695471 -0.641893 -0.322944
-0.330147 -0.115788 0.091579 -0.381113 -0.590356 -0.711500
-0.318108 -0.115788 0.091579 -0.560254 -0.757201 0.335800
-0.317368 -0.116005 0.091579 -0.673202 0.696645 0.247959
-0.307895 -0.120246 0.091579 -0.349899 0.667445 -0.657333
-0.307212 -0.115788 0.091579 -0.117461 -0.297994 -0.947313
-0.203684 -0.115788 0.086712 -0.550464 0.702369 0.451295
-0.196081 -0.115788 0.091579 -0.537361 0.737475 0.409114
-0.194211 -0.123535 0.091579 -0.907804 0.143405 0.394116
-0.184737 -0.120688 0.091579 -0.985705 0.115864 0.122318
-0.184737 -0.115788 0.090979 -0.640402 0.761064 0.103281
-0.188702 -0.115788 0.091579 -0.601785 0.785241 -0.145776
-0.182976 -0.115788 0.091579 -0.681204 0.597880 0.422494
-0.042632 -0.132612 0.091579 -0.212396 0.522793 -0.825576
-0.037248 -0.115788 0.091579 0.004796 -0.251349 -0.967885
-0.397488 -0.094736 0.091579 -0.198820 -0.280397 0.939068
-0.383684 -0.094736 0.089084 -0.974687 -0.051512 0.217560
-0.387365 -0.094736 0.091579 -0.366071 -0.237504 -0.899769
-0.383684 -0.101750 0.091579 -0.482660 -0.868239 -0.114895
-0.378873 -0.094736 0.091579 -0.419258 -0.480163 0.770497
-0.364391 -0.094736 0.091579 -0.153581 -0.477722 -0.864983
-0.336316 -0.104269 0.091579 -0.215482 -0.946598 0.239832
-0.317368 -0.115590 0.091579 -0.176452 -0.979085 0.101282
-0.307895 -0.113450 0.091579 -0.252938 -0.901127 -0.352127
-0.232105 -0.094736 0.089388 -0.508870 0.392496 0.766158
-0.230645 -0.094736 0.091579 -0.518512 0.290434 0.804235
-0.222632 -0.104205 0.091579 -0.278327 0.912248 0.300563
-0.213158 -0.098892 0.091579 -0.454372 0.889586 -0.046724
-0.203684 -0.109302 0.091579 -0.397822 0.839636 0.369796
-0.184737 -0.114738 0.091579 -0.429752 0.899555 0.078196
-0.042722 -0.094736 0.091579 0.072502 -0.147563 -0.986392
-0.042632 -0.095145 0.091579 0.331468 -0.527769 -0.782041
-0.394138 -0.073683 0.091579 0.170451 0.101197 0.980156
-0.383684 -0.073683 0.089725 -0.780194 -0.459977 -0.423932
-0.387759 -0.073683 0.091579 0.640109 0.497038 -0.585845
-0.374211 -0.078629 0.091579 0.007557 -0.885208 -0.465135
-0.374211 -0.073683 0.088520 -0.612406 0.526877 -0.589372
-0.364737 -0.092410 0.091579 -0.108517 -0.433000 -0.894838
-0.222632 -0.081824 0.091579 -0.467896 -0.845115 0.258561
-0.222632 -0.073683 0.085383 -0.888612 -0.093306 0.449068
-0.213158 -0.089443 0.091579 -0.541265 -0.810525 -0.223788
-0.213158 -0.073683 0.085622 -0.654781 -0.697679 0.290698
-0.203684 -0.074311 0.091579 -0.444002 -0.760744 0.473425
-0.203684 -0.073683 0.091240 -0.679851 0.147819 0.718298
-0.203210 -0.073683 0.091579 -0.621406 -0.429754 0.655107
-0.184737 -0.073683 0.091168 -0.970070 -0.221533 -0.099433
-0.185512 -0.073683 0.091579 -0.617495 -0.022388 -0.786256
-0.184737 -0.074388 0.091579 -0.475356 -0.862811 -0.172028
-0.183495 -0.073683 0.091579 -0.747474 -0.213550 0.629030
-0.042632 -0.092012 0.091579 0.198333 0.121114 -0.972623
-0.041466 -0.073683 0.091579 0.098999 0.836290 -0.539275
-0.400252 -0.052630 0.091579 0.195402 0.295909 0.935017
-0.383684 -0.070063 0.091579 0.108196 0.992481 -0.057219
-0.374211 -0.072037 0.091579 0.040592 0.976968 -0.209491
-0.364737 -0.066006 0.091579 0.048560 0.888740 -0.455833
-0.355263 -0.052630 0.090798 0.054201 0.219077 -0.974201
-0.355263 -0.052920 0.091579 0.025845 0.924913 -0.379299
-0.345789 -0.052630 0.090008 0.249477 0.958130 0.140527
-0.353185 -0.052630 0.091579 0.196535 0.963146 -0.183641
-0.343585 -0.052630 0.091579 0.471290 0.031680 0.881409
-0.336316 -0.056880 0.091579 0.119336 0.979208 0.164042
-0.336316 -0.052630 0.088734 0.779435 0.580745 -0.234982
-0.327047 -0.052630 0.091579 0.428426 0.708956 -0.560208
-0.222632 -0.052630 0.091430 -0.880150 0.305672 0.363182
-0.213158 -0.052630 0.087566 -0.632024 0.750176 0.194375
-0.208546 -0.052630 0.091579 -0.456208 0.379859 0.804725
-0.203684 -0.072862 0.091579 -0.531927 0.640523 0.553881
-0.184737 -0.071872 0.091579 -0.644765 0.764285 -0.012113
-0.040139 -0.052630 0.091579 0.357652 0.142798 -0.922872
-0.402632 -0.031578 0.091092 0.861741 -0.382405 0.333418
-0.402632 -0.035524 0.091579 0.350456 0.177452 0.919615
-0.403291 -0.031578 0.091579 0.227881 0.178217 0.957240
-0.393158 -0.031578 0.090830 0.997430 -0.068742 -0.020208
-0.384582 -0.031578 0.091579 0.638634 -0.758091 -0.132082
-0.383684 -0.032053 0.091579 0.336530 -0.913929 0.226894
-0.383466 -0.031578 0.091579 0.217214 -0.749927 0.624842
-0.362089 -0.031578 0.091579 0.004772 -0.445162 -0.895437
-0.355263 -0.051955 0.091579 -0.042032 -0.892002 -0.450073
-0.336316 -0.037980 0.091579 0.233502 -0.972298 -0.010628
-0.232105 -0.031578 0.091045 -0.493420 -0.680300 0.541968
-0.231072 -0.031578 0.091579 -0.797637 -0.292402 0.527518
-0.222632 -0.052113 0.091579 -0.697317 0.685600 0.209051
-0.213158 -0.042241 0.091579 -0.577182 0.746797 0.330386
-0.034389 -0.031578 0.091579 0.302069 0.597419 -0.742863
-0.402632 -0.027167 0.091579 0.732033 -0.364599 0.575495
-0.393510 -0.010525 0.091579 0.378185 0.561581 0.735936
-0.393158 -0.010525 0.091328 0.111519 0.917440 0.381927
-0.392987 -0.010525 0.091579 0.378961 0.069319 -0.922813
-0.377784 -0.010525 0.091579 0.175291 0.344448 0.922295
-0.363511 -0.010525 0.091579 0.144931 0.272853 -0.951076
-0.222632 -0.025874 0.091579 -0.387353 -0.893514 0.227137
-0.213158 -0.023691 0.091579 -0.401165 -0.911053 0.095128
-0.203684 -0.022012 0.091579 -0.291768 -0.888683 0.353716
-0.196290 -0.010525 0.091579 -0.303874 -0.396305 0.866374
-0.184737 -0.010525 0.087843 -0.817506 -0.426109 0.387446
-0.189850 -0.010525 0.091579 -0.573252 -0.438169 -0.692380
-0.184737 -0.016999 0.091579 -0.385629 -0.918075 -0.091811
-0.182007 -0.010525 0.091579 -0.297272 -0.204790 0.932572
-0.033158 -0.029422 0.091579 0.303116 0.829269 -0.469504
-0.023684 -0.023233 0.091579 0.019788 0.944418 -0.328151
-0.014211 -0.016152 0.091579 -0.028313 0.795635 -0.605115
-0.011769 -0.010525 0.091579 0.062749 0.415632 -0.907366
-0.402632 0.010528 0.086316 0.102848 0.803408 0.586479
-0.402632 0.001672 0.091579 -0.230308 0.615777 0.753509
-0.404672 0.010528 0.091579 -0.184424 0.544491 0.818241
-0.383684 0.010528 0.085390 0.186172 0.943372 0.274572
-0.383684 0.002990 0.091579 -0.077459 0.996788 -0.020326
-0.355263 0.008129 0.091579 -0.089181 0.918512 -0.385205
-0.355263 0.010528 0.088041 0.018211 0.972812 -0.230881
-0.345789 0.008905 0.091579 0.026796 0.998768 0.041772
-0.336316 0.010528 0.088003 0.320650 0.835097 -0.446986
-0.336316 0.005886 0.091579 -0.132425 0.990418 0.039195
-0.331537 0.010528 0.091579 -0.239125 0.410765 -0.879825
-0.213158 0.010528 0.085486 -0.929111 -0.161056 0.332887
-0.203684 0.010528 0.088289 -0.755564 -0.127005 0.642645
-0.200440 0.010528 0.091579 -0.397366 0.165188 0.902670
-0.184737 0.009555 0.091579 -0.668825 0.719488 0.187111
-0.004737 0.010528 0.087915 -0.680930 0.385864 -0.622450
-0.010178 0.010528 0.091579 -0.245465 0.548607 -0.799235
-0.412105 0.021163 0.091579 -0.187659 0.957408 0.219440
-0.331133 0.031580 0.091579 -0.122340 -0.190642 -0.974006
-0.199256 0.031580 0.091579 -0.147322 -0.478923 0.865407
-0.184737 0.031580 0.091272 -0.932601 -0.016615 0.360526
-0.185330 0.031580 0.091579 -0.407143 -0.066643 -0.910930
-0.184737 0.015123 0.091579 -0.975107 -0.039186 0.218247
-0.184465 0.031580 0.091579 -0.249215 0.113782 0.961741
-0.004737 0.024768 0.091579 -0.341050 0.804577 -0.486149
0.004737 0.031373 0.091579 -0.244402 0.960708 0.131561
0.014210 0.024486 0.091579 -0.349572 0.843355 -0.408108
0.023684 0.031580 0.086218 -0.412227 0.571386 -0.709639
0.017634 0.031580 0.091579 -0.160228 0.573114 -0.803659
-0.355263 0.052633 0.087096 -0.582647 -0.560821 -0.588220
-0.357209 0.052633 0.091579 -0.013087 -0.263030 -0.964699
-0.355263 0.048437 0.091579 -0.021299 -0.873175 -0.486942
-0.345789 0.042156 0.091579 -0.211578 -0.975470 -0.060777
-0.345789 0.052633 0.086263 -0.343354 -0.830677 -0.438273
-0.336316 0.045521 0.091579 -0.181904 -0.915358 -0.359208
-0.194211 0.042526 0.091579 -0.175869 -0.884609 0.431899
-0.184737 0.052633 0.087682 0.058345 -0.030173 0.997840
-0.183906 0.052633 0.091579 -0.212569 -0.194348 0.957624
0.023684 0.052633 0.089670 -0.563479 0.440498 -0.698894
0.021692 0.052633 0.091579 -0.322740 0.273698 -0.906051
-0.413470 0.073686 0.091579 0.259177 -0.309838 0.914783
-0.412105 0.073686 0.089098 0.390045 -0.343820 0.854197
-0.397203 0.073686 0.091579 0.720167 -0.358815 -0.593811
-0.393158 0.070459 0.091579 0.105640 -0.437290 0.893094
-0.392150 0.073686 0.091579 0.195732 0.295913 0.934946
-0.355263 0.065887 0.091579 -0.326725 0.421017 -0.846165
-0.345789 0.073686 0.090138 -0.377067 0.057266 -0.924414
-0.350442 0.073686 0.091579 -0.098595 -0.485655 -0.868572
-0.184737 0.057505 0.091579 -0.329370 0.445467 0.832511
-0.191252 0.073686 0.091579 -0.720637 0.364908 0.589512
0.023684 0.071250 0.091579 -0.412772 -0.056656 -0.909071
0.024137 0.073686 0.091579 -0.158135 0.184431 -0.970041
-0.412105 0.094738 0.086501 0.105534 0.776216 0.621572
-0.393158 0.077467 0.091579 0.438481 0.805921 0.397776
-0.355263 0.094738 0.086072 -0.994406 0.007069 0.105393
-0.359798 0.094738 0.091579 -0.239201 -0.280613 -0.929537
-0.355263 0.076739 0.091579 0.045388 -0.892787 -0.448186
-0.345789 0.094738 0.089688 -0.866406 0.201036 0.457083
-0.336316 0.087573 0.091579 -0.597394 0.740949 0.306780
-0.340359 0.094738 0.091579 -0.474600 0.040816 0.879255
-0.326842 0.085004 0.091579 -0.138404 0.989177 -0.048708
-0.317368 0.087829 0.091579 -0.086231 0.994651 -0.056868
-0.307895 0.088142 0.091579 -0.122402 0.895704 -0.427472
-0.305126 0.094738 0.091579 -0.181827 0.047031 -0.982205
-0.194211 0.094738 0.089064 -0.356767 -0.241451 0.902452
-0.194211 0.089075 0.091579 -0.578328 0.003195 0.815798
-0.194551 0.094738 0.091579 -0.230297 -0.037070 0.972414
0.033158 0.094738 0.088093 -0.089549 -0.141774 -0.985840
0.032664 0.094738 0.091579 -0.185130 -0.384742 -0.904268
-0.416986 0.115791 0.091579 0.328482 -0.374881 0.866928
-0.364593 0.115791 0.091579 -0.119731 -0.135909 -0.983460
-0.339523 0.115791 0.091579 -0.073495 0.231796 0.969984
-0.324440 0.115791 0.091579 -0.222044 -0.227816 -0.948049
-0.317368 0.101852 0.091579 -0.298667 -0.936902 -0.181692
-0.307895 0.101550 0.091579 -0.124405 -0.898675 -0.420603
-0.307895 0.115791 0.086353 -0.749981 -0.391982 -0.532803
-0.194211 0.105065 0.091579 -0.175641 0.102852 0.979067
-0.193615 0.115791 0.091579 -0.162674 0.314207 0.935313
0.014631 0.115791 0.091579 -0.462036 -0.687139 -0.560681
0.023684 0.104325 0.091579 -0.141344 -0.844527 -0.516524
-0.412241 0.136844 0.091579 0.037375 -0.731235 0.681101
-0.402632 0.136844 0.088504 -0.171037 -0.983570 0.057756
-0.410686 0.136844 0.091579 -0.208291 -0.975879 -0.065380
-0.402632 0.133696 0.091579 -0.676495 -0.726722 0.119288
-0.399833 0.136844 0.091579 -0.240079 -0.933949 0.264766
-0.355263 0.136844 0.086798 -0.661245 -0.647435 -0.378922
-0.362386 0.136844 0.091579 -0.364925 -0.112340 -0.924235
-0.350566 0.136844 0.091579 -0.183487 0.102435 0.977671
-0.345789 0.127768 0.091579 -0.079200 0.781749 0.618544
-0.317368 0.136844 0.087330 -0.836168 0.411619 -0.362482
-0.321548 0.136844 0.091579 -0.284244 -0.326994 -0.901266
-0.307895 0.136844 0.088884 -0.501433 -0.006048 -0.865175
-0.193836 0.136844 0.091579 -0.143611 0.551091 0.821994
0.004737 0.136844 0.087893 -0.644574 -0.268701 -0.715769
0.002259 0.136844 0.091579 -0.259995 -0.367370 -0.892996
0.004737 0.129217 0.091579 -0.295767 -0.606715 -0.737847
0.014210 0.116918 0.091579 -0.455743 -0.609400 -0.648791
0.014210 0.136844 0.085977 -0.930145 -0.148195 -0.335960
-0.412105 0.136995 0.091579 -0.180564 -0.959587 0.215845
-0.393158 0.139026 0.091579 -0.119504 -0.983917 0.132764
-0.383684 0.140917 0.091579 -0.138497 -0.968703 0.205991
-0.374211 0.149362 0.091579 -0.281190 -0.957799 0.059618
-0.374211 0.157896 0.087597 -0.955086 -0.284312 0.083531
-0.364737 0.138629 0.091579 -0.215297 -0.902778 -0.372343
-0.364737 0.157896 0.085557 -0.716815 -0.286677 -0.635604
-0.345789 0.144975 0.091579 -0.029585 -0.913688 0.405337
-0.345789 0.157896 0.086755 -0.750175 -0.207633 0.627795
-0.336316 0.143282 0.091579 -0.244916 -0.969544 0.000863
-0.336316 0.157896 0.087481 -0.983072 -0.181946 0.021552
-0.326842 0.145065 0.091579 -0.204066 -0.974872 -0.089343
-0.326842 0.157896 0.087252 -0.981487 0.079987 0.174028
-0.317368 0.157896 0.088639 -0.957641 -0.262170 -0.119124
-0.307895 0.157896 0.085486 -0.643971 0.066929 -0.762116
-0.222632 0.151030 0.091579 -0.268471 0.961863 0.052382
-0.226411 0.157896 0.091579 -0.237626 0.650102 0.721735
-0.217334 0.157896 0.091579 -0.471818 0.541116 -0.696119
-0.203684 0.147994 0.091579 -0.444960 0.752212 0.485991
-0.209159 0.157896 0.091579 -0.580181 0.428281 0.692795
-0.194211 0.137700 0.091579 -0.002660 0.815526 0.578714
-0.004737 0.157896 0.090133 -0.835855 0.197280 -0.512276
-0.006143 0.157896 0.091579 -0.323259 0.292343 -0.900022
-0.004737 0.154642 0.091579 -0.402570 -0.594239 -0.696289
0.004737 0.157896 0.088442 -0.762297 0.639203 -0.101602
0.014210 0.157896 0.088242 -0.871961 0.467110 -0.146600
0.023684 0.157896 0.086290 -0.805865 0.126528 -0.578423
-0.374211 0.169715 0.091579 -0.084348 0.995047 0.052605
-0.383185 0.178949 0.091579 0.188882 0.438719 0.878549
-0.364737 0.177365 0.091579 -0.123031 0.933123 -0.337852
-0.362384 0.178949 0.091579 -0.206865 0.439480 -0.874108
-0.345789 0.178949 0.089829 -0.258353 0.916305 0.306005
-0.342228 0.178949 0.091579 0.019109 0.864726 0.501880
-0.336316 0.173648 0.091579 0.026930 0.976953 0.211750
-0.326842 0.178949 0.086635 0.805599 -0.592303 0.013733
-0.326842 0.171455 0.091579 -0.039121 0.995918 -0.081345
-0.319466 0.178949 0.091579 0.236881 0.153714 -0.959301
-0.317368 0.178949 0.089420 -0.487427 0.218891 -0.845282
-0.230610 0.178949 0.091579 -0.040963 0.215034 0.975747
-0.214313 0.178949 0.091579 -0.182887 0.257403 -0.948839
-0.210833 0.178949 0.091579 0.104486 0.303615 0.947049
-0.004737 0.160523 0.091579 -0.314580 0.860397 -0.400944
0.004737 0.164272 0.091579 -0.385010 0.917973 -0.095353
0.014210 0.168688 0.091579 -0.537730 0.787256 -0.301786
0.022934 0.178949 0.091579 -0.773274 0.429627 -0.466334
-0.374211 0.185979 0.091579 -0.031888 -0.996270 0.080183
-0.364737 0.182807 0.091579 -0.212256 -0.918245 -0.334324
-0.364737 0.200001 0.086559 -0.523636 0.570710 0.632531
-0.355263 0.200001 0.088290 -0.382818 0.845979 0.371172
-0.352905 0.200001 0.091579 0.077745 0.701947 0.707973
-0.345789 0.182243 0.091579 -0.130944 0.933857 0.332812
-0.339711 0.200001 0.091579 0.084118 0.573605 -0.814802
-0.336316 0.186431 0.091579 0.083837 -0.995905 0.033845
-0.326842 0.189345 0.091579 0.165505 -0.962446 -0.215188
-0.317368 0.200001 0.086045 -0.804491 0.497773 -0.324063
-0.232105 0.200001 0.089243 -0.300073 0.212617 0.929920
-0.230426 0.200001 0.091579 -0.057921 -0.026299 0.997975
-0.213158 0.192127 0.091579 0.049804 0.939198 -0.339745
0.014210 0.200001 0.091505 -0.393433 -0.030615 -0.918843
0.014191 0.200001 0.091579 -0.462007 -0.030662 -0.886346
0.014210 0.199776 0.091579 -0.706282 -0.009045 -0.707873
0.023684 0.200001 0.091155 -0.456655 -0.617679 -0.640265
0.415978 0.200001 0.091579 0.607437 0.602332 0.517896
-0.402632 0.221054 0.090628 0.845894 -0.274530 0.457271
-0.402632 0.217901 0.091579 0.578225 0.394891 0.713945
-0.403577 0.221054 0.091579 0.170512 -0.365409 0.915097
-0.399959 0.221054 0.091579 0.464941 0.207740 -0.860624
-0.383684 0.209247 0.091579 0.195102 0.961282 0.194610
-0.390857 0.221054 0.091579 0.243970 0.500662 0.830552
-0.374211 0.209184 0.091579 0.105748 0.992716 0.057732
-0.364737 0.205918 0.091579 -0.000879 0.985200 0.171404
-0.355263 0.202677 0.091579 0.056907 0.962245 0.266170
-0.336316 0.205156 0.091579 0.026052 0.941224 -0.336777
-0.326842 0.207148 0.091579 -0.052845 0.994438 -0.091105
-0.317368 0.208902 0.091579 -0.006824 0.967142 -0.254144
-0.307895 0.215890 0.091579 -0.263595 0.936154 -0.232665
-0.298421 0.221054 0.091298 -0.562895 0.682731 -0.465863
-0.299034 0.221054 0.091579 -0.101292 0.932237 -0.347383
-0.241579 0.221054 0.087967 -0.471262 0.575287 0.668548
-0.236850 0.221054 0.091579 0.035437 0.868596 0.494251
-0.232105 0.210022 0.091579 -0.118190 0.502760 0.856308
0.014210 0.221054 0.091053 -0.574568 -0.369415 -0.730346
0.013674 0.221054 0.091579 -0.473678 -0.231977 -0.849597
0.402631 0.221054 0.087843 0.459712 0.506557 0.729428
0.402631 0.218910 0.091579 0.148012 0.673489 0.724228
0.401731 0.221054 0.091579 0.085523 0.315690 0.945000
0.412105 0.221054 0.089275 0.648871 0.719318 0.248089
0.412105 0.209030 0.091579 0.346625 0.693529 0.631560
-0.402632 0.224069 0.091579 0.351444 -0.895694 0.272433
