ply
format ascii 1.0
element vertex 842
property float x
property float y
property float z
property float nx
property float ny
property float nz
end_header
0.402631 -0.763139 0.148422 -0.075484 0.987057 0.141496
0.334669 -0.726315 0.148422 -0.059482 -0.302629 0.951250
0.338056 -0.726315 0.148422 -0.161044 -0.460604 -0.872874
0.355263 -0.728219 0.148422 -0.468263 0.064504 0.881232
0.353977 -0.726315 0.148422 -0.281098 -0.682954 0.674209
0.364737 -0.727471 0.148422 -0.247850 0.925907 0.285073
0.393158 -0.726315 0.148254 -0.895899 -0.121212 0.427402
0.392918 -0.726315 0.148422 0.074039 -0.055872 -0.995689
0.393158 -0.726747 0.148422 -0.492410 0.049404 0.868960
0.393296 -0.726315 0.148422 0.006737 -0.114401 0.993412
0.412105 -0.726315 0.146766 -0.992327 0.106863 -0.062183
0.410729 -0.726315 0.148422 -0.254179 -0.019693 -0.966957
0.412105 -0.731624 0.148422 -0.302926 -0.469692 -0.829232
0.414281 -0.726315 0.148422 -0.116054 -0.067216 0.990966
0.336316 -0.719887 0.148422 -0.384997 -0.920975 -0.059850
0.345789 -0.705263 0.143275 -0.504941 -0.829125 -0.239972
0.355263 -0.724609 0.148422 -0.246222 -0.935541 0.253253
0.364737 -0.724512 0.148422 -0.519564 -0.791406 0.322072
0.364737 -0.705263 0.143749 -0.431337 -0.814134 0.388761
0.374210 -0.705901 0.148422 -0.503195 -0.825448 0.255793
0.374210 -0.705263 0.148032 -0.572623 -0.812348 0.110425
0.383684 -0.709224 0.148422 -0.333379 -0.923658 -0.188983
0.383684 -0.705263 0.146348 -0.633371 -0.765765 -0.111559
0.393158 -0.705263 0.145363 -0.254686 -0.694638 0.672765
0.394181 -0.705263 0.148422 0.003373 -0.149365 0.988776
0.412105 -0.705263 0.147872 -0.071565 0.110357 -0.991312
0.411738 -0.705263 0.148422 -0.071957 0.065595 -0.995248
0.412813 -0.705263 0.148422 0.129462 0.076747 0.988610
0.398012 -0.684210 0.148422 0.205418 -0.911493 0.356347
0.412105 -0.702980 0.148422 -0.110038 0.745574 -0.657276
0.402631 -0.681940 0.148422 0.075962 -0.991639 0.104316
0.412105 -0.682005 0.148422 0.045131 -0.998459 -0.032297
-0.251053 -0.052630 0.143221 -0.296425 -0.055039 0.953469
-0.251053 -0.031578 0.142984 -0.527531 -0.058254 0.847536
-0.251053 -0.010525 0.143645 -0.041015 -0.251956 0.966869
-0.033158 0.010528 0.143698 -0.975353 0.212023 0.061100
-0.004737 0.010528 0.144197 -0.881958 0.463144 0.087445
0.004737 0.010528 0.142835 -0.682108 0.720081 -0.127329
0.014210 0.010528 0.142143 -0.755933 0.426205 -0.496906
-0.222632 0.031580 0.147059 0.908599 0.187933 -0.373001
-0.222632 0.028862 0.148422 0.545811 0.738938 -0.395045
-0.227115 0.031580 0.148422 0.344135 0.813675 0.468513
-0.221254 0.031580 0.148422 0.203050 0.323703 -0.924114
-0.033158 0.031580 0.144015 -0.910907 -0.001711 0.412608
-0.023684 0.031580 0.146505 -0.977747 -0.065391 0.199335
-0.014211 0.031580 0.145606 -0.979913 0.196066 0.036463
-0.004737 0.031580 0.146703 -0.963178 0.266595 0.034864
0.004737 0.031580 0.146383 -0.892127 0.269173 -0.362842
-0.251053 0.052633 0.142459 0.496865 0.408186 0.765839
-0.251053 0.036248 0.148422 0.123750 0.555262 0.822417
-0.252824 0.052633 0.148422 -0.056586 -0.288429 0.955828
-0.241579 0.052633 0.147951 0.535891 -0.836708 0.112877
-0.241579 0.050981 0.148422 0.148722 0.967458 0.204711
-0.232105 0.039070 0.148422 0.637025 0.684121 0.355215
-0.222632 0.052633 0.146967 0.893903 0.187425 -0.407197
-0.218395 0.052633 0.148422 0.259810 0.023251 -0.965380
-0.033158 0.052633 0.142883 -0.923102 0.334709 0.189347
-0.023684 0.052633 0.144246 -0.977790 0.192336 0.083270
-0.014211 0.052633 0.143199 -0.903413 0.425273 0.054672
-0.004737 0.052633 0.146561 -0.846979 0.313768 0.429157
0.001230 0.052633 0.148422 -0.799410 0.384902 0.461297
0.004737 0.045952 0.148422 -0.879999 0.310151 -0.359733
0.014210 0.052633 0.145293 -0.736988 0.529642 -0.419913
0.006720 0.052633 0.148422 -0.629382 0.447164 -0.635549
-0.251053 0.056766 0.148422 -0.059459 -0.949961 0.306656
-0.241579 0.052988 0.148422 0.075263 -0.992800 0.093185
-0.232105 0.061688 0.148422 0.174706 -0.897065 0.405896
-0.222632 0.073686 0.147267 0.436654 -0.894333 0.097477
-0.223756 0.073686 0.148422 0.322248 -0.666905 0.671859
-0.221815 0.073686 0.148422 0.443266 -0.254461 -0.859514
-0.042632 0.073686 0.146007 -0.790709 0.468180 0.394445
-0.033227 0.073686 0.148422 -0.902848 0.304425 0.303630
-0.033158 0.073637 0.148422 -0.765809 0.611166 0.200029
-0.023684 0.068961 0.148422 -0.703902 0.710032 0.019416
-0.014211 0.070197 0.148422 -0.691699 0.700973 0.173752
-0.004737 0.061350 0.148422 -0.781680 0.548274 0.297274
0.014210 0.062755 0.148422 -0.679313 0.586982 -0.440439
0.023684 0.073686 0.145338 -0.652010 0.707818 -0.271802
0.019399 0.073686 0.148422 -0.546676 0.480566 -0.685712
0.029222 0.073686 0.148422 -0.649328 0.424592 0.630947
0.033158 0.064676 0.148422 -0.820826 0.564678 -0.085928
0.042631 0.073686 0.142720 -0.496091 0.515177 -0.698918
0.036490 0.073686 0.148422 -0.602811 0.218877 -0.767276
-0.251053 0.094738 0.145356 -0.122732 0.808586 0.575436
-0.247345 0.094738 0.148422 -0.011029 0.788452 0.614997
-0.241579 0.092255 0.148422 -0.095669 0.982469 0.160003
-0.241579 0.094738 0.144549 0.137297 0.981831 0.130985
-0.232105 0.091039 0.148422 -0.122677 0.979799 -0.157937
-0.222632 0.078513 0.148422 0.678535 -0.483462 -0.553042
-0.229072 0.094738 0.148422 -0.781061 0.090790 -0.617819
-0.052105 0.094738 0.143977 -0.697767 -0.340487 0.630230
-0.042632 0.094738 0.147958 -0.845193 -0.474471 0.246021
-0.033158 0.074132 0.148422 -0.953016 -0.104963 0.284153
-0.033158 0.094738 0.147907 -0.984859 0.024553 0.171612
-0.030407 0.094738 0.148422 -0.928796 -0.086282 0.360408
0.023684 0.085521 0.148422 -0.807369 0.523935 -0.271382
0.042631 0.094738 0.146784 -0.720973 0.087868 -0.687370
0.040247 0.094738 0.148422 -0.735302 -0.188698 -0.650941
-0.251053 0.115791 0.143542 -0.570979 -0.601137 0.559122
-0.241579 0.111511 0.148422 -0.573615 -0.524801 0.628927
-0.241579 0.115791 0.147112 -0.686347 -0.645384 0.335272
-0.237068 0.115791 0.148422 -0.383694 -0.846503 0.369069
-0.222632 0.103703 0.148422 -0.693410 0.605669 -0.390317
-0.217768 0.115791 0.148422 -0.152708 -0.091458 -0.984030
-0.042632 0.115791 0.143350 -0.759386 -0.253197 0.599353
-0.033158 0.115791 0.147457 -0.814072 -0.516026 0.266466
-0.023684 0.106865 0.148422 -0.932753 -0.337411 0.126983
-0.023684 0.115791 0.147712 -0.978113 -0.207239 0.018609
-0.014211 0.110662 0.148422 -0.843162 -0.524702 0.117328
-0.014211 0.115791 0.147760 -0.983072 -0.176328 0.049769
-0.005847 0.115791 0.148422 -0.890513 -0.409478 0.198279
0.023684 0.115791 0.145657 -0.905914 -0.421619 -0.039452
0.018325 0.115791 0.148422 -0.663466 -0.478765 -0.574976
0.023684 0.104894 0.148422 -0.777061 -0.607937 -0.163058
0.031214 0.115791 0.148422 -0.725437 -0.548508 0.415789
0.042631 0.115791 0.143463 -0.724739 -0.343987 -0.597015
0.034631 0.115791 0.148422 -0.684909 -0.458988 -0.565888
-0.232105 0.118477 0.148422 -0.229071 -0.919455 0.319578
-0.222632 0.127298 0.148422 -0.272898 -0.961018 -0.044394
-0.127895 0.123795 0.148422 0.505593 0.552323 0.662809
-0.130169 0.136844 0.148422 -0.192041 0.088882 0.977354
-0.123784 0.136844 0.148422 0.024438 -0.477724 -0.878170
-0.042632 0.136844 0.142998 -0.890204 -0.243422 0.385075
-0.033158 0.136844 0.144071 -0.960909 0.018525 0.276245
-0.023684 0.136844 0.146955 -0.948392 -0.015598 0.316718
-0.014211 0.136844 0.147373 -0.978738 0.159749 0.128659
-0.007192 0.136844 0.148422 -0.956386 -0.051344 0.287558
0.004737 0.136844 0.147451 -0.980184 0.170077 -0.101557
-0.001764 0.136844 0.148422 -0.966403 -0.076118 -0.245502
0.004737 0.124823 0.148422 -0.961063 -0.276236 0.007147
0.014210 0.128522 0.148422 -0.897333 -0.406365 -0.172224
0.014210 0.136844 0.147298 -0.928008 -0.130590 -0.348924
0.023684 0.136844 0.143982 -0.959123 0.201297 -0.198905
0.033158 0.118973 0.148422 -0.798659 -0.601199 0.026501
0.033158 0.136844 0.144178 -0.959145 -0.057815 -0.276943
-0.127895 0.143301 0.148422 -0.126569 -0.981911 0.140821
-0.033158 0.157896 0.146051 -0.819479 -0.251636 0.514911
-0.024881 0.157896 0.148422 -0.943572 -0.056361 0.326335
-0.023684 0.155206 0.148422 -0.890598 0.407766 0.201400
-0.014211 0.148055 0.148422 -0.976001 0.215968 0.027925
-0.009376 0.157896 0.148422 -0.922588 -0.085011 -0.376304
-0.004737 0.157896 0.147293 -0.969958 0.110647 0.216653
-0.004737 0.143021 0.148422 -0.997082 -0.047931 0.059422
0.004737 0.143154 0.148422 -0.932853 0.351857 -0.077345
-0.001702 0.157896 0.148422 -0.841818 -0.068505 0.535397
0.014210 0.157896 0.147729 -0.931791 0.154995 -0.328242
0.012133 0.157896 0.148422 -0.880964 -0.012893 -0.473007
0.023684 0.157896 0.147322 -0.997021 -0.059484 -0.049109
0.033158 0.157896 0.147104 -0.921031 -0.263281 -0.287026
0.042631 0.157896 0.144360 -0.932319 0.174345 -0.316836
0.052105 0.157896 0.142562 -0.912943 0.122968 -0.389120
-0.023684 0.159562 0.148422 -0.849346 -0.460605 0.257789
-0.023684 0.178949 0.145816 -0.818825 0.006912 0.574002
-0.014211 0.177982 0.148422 -0.904077 -0.401008 0.147776
-0.014211 0.178949 0.148351 -0.984252 -0.176137 0.014964
-0.004737 0.178949 0.145382 -0.961254 0.238262 -0.138642
0.004737 0.168944 0.148422 -0.882432 -0.457435 0.109850
0.004737 0.178949 0.146097 -0.997352 -0.050641 0.052205
0.014210 0.178949 0.146174 -0.992342 -0.041473 -0.116352
0.023684 0.178949 0.145094 -0.917228 -0.258338 -0.303241
0.042631 0.178949 0.142994 -0.984888 -0.084855 -0.150983
-0.412105 0.200001 0.146739 -0.650964 -0.075122 0.755382
-0.402632 0.200001 0.143690 -0.811979 0.573714 0.107431
-0.396181 0.200001 0.148422 -0.360405 0.029968 0.932314
-0.393158 0.195541 0.148422 -0.555285 0.822720 0.121613
-0.383684 0.200001 0.145734 -0.717537 0.026680 -0.696009
-0.387800 0.200001 0.148422 -0.341248 0.563683 -0.752204
-0.033158 0.200001 0.142569 -0.788813 0.218491 0.574488
-0.023684 0.200001 0.147797 -0.951032 0.040770 0.306392
-0.015069 0.200001 0.148422 -0.972517 0.194872 0.127416
-0.014211 0.187615 0.148422 -0.969843 0.239401 -0.045745
-0.004737 0.196401 0.148422 -0.971813 0.224522 -0.071898
0.004737 0.200001 0.147976 -0.888648 0.452293 -0.075734
0.000609 0.200001 0.148422 -0.935217 0.322590 -0.145961
0.014210 0.200001 0.148131 -0.979364 0.036988 -0.198690
0.023684 0.200001 0.145700 -0.972088 0.174751 -0.156549
0.033158 0.200001 0.145908 -0.968700 0.241421 -0.057754
0.042631 0.200001 0.144911 -0.941620 0.207999 -0.264743
0.052105 0.200001 0.142663 -0.909824 0.060267 -0.410596
-0.412105 0.221054 0.142571 -0.753171 -0.572172 0.324581
-0.393158 0.212322 0.148422 -0.511225 -0.760852 0.399691
-0.393158 0.221054 0.145122 -0.770577 -0.559550 -0.305147
-0.260526 0.221054 0.147948 0.931959 0.087004 0.351969
-0.260526 0.218419 0.148422 -0.628757 0.711046 0.314767
-0.262035 0.221054 0.148422 -0.608786 -0.284263 0.740658
-0.251053 0.221054 0.145826 0.869314 -0.056604 0.491009
-0.251053 0.214130 0.148422 -0.326087 0.917649 0.227127
-0.241579 0.208195 0.148422 -0.143043 0.851997 -0.503626
-0.237131 0.221054 0.148422 -0.287548 -0.425762 -0.857930
-0.146842 0.221054 0.147984 0.002306 0.922009 -0.387163
-0.146842 0.220733 0.148422 -0.671130 -0.414274 -0.614786
-0.146974 0.221054 0.148422 -0.609998 0.602274 0.514945
-0.146793 0.221054 0.148422 -0.358723 0.327431 -0.874132
-0.033158 0.221054 0.144625 -0.888509 -0.013101 0.458673
-0.023684 0.221054 0.147335 -0.939366 0.207280 0.273180
-0.016163 0.221054 0.148422 -0.968427 -0.007292 0.249189
0.004737 0.202860 0.148422 -0.919329 0.388050 -0.065193
0.014210 0.221054 0.147111 -0.792711 0.383731 -0.473667
0.011584 0.221054 0.148422 -0.785719 0.273749 -0.554714
0.023684 0.221054 0.145724 -0.944535 0.324377 0.051318
0.033158 0.221054 0.148286 -0.994093 0.011607 -0.107910
0.042631 0.221054 0.144880 -0.878880 0.058520 -0.473441
-0.393158 0.242107 0.146324 -0.532699 0.576751 0.619346
-0.374211 0.238468 0.148422 -0.151614 0.972219 0.178336
-0.378009 0.242107 0.148422 -0.266358 0.831039 0.488291
-0.364737 0.238496 0.148422 -0.319476 0.926270 -0.199896
-0.355263 0.242107 0.143773 -0.374231 0.872729 -0.313520
-0.359916 0.242107 0.148422 -0.463503 0.762967 -0.450607
-0.349676 0.242107 0.148422 -0.395966 0.803220 0.445027
-0.345789 0.238653 0.148422 -0.235926 0.962513 -0.133820
-0.343799 0.242107 0.148422 -0.107429 0.361623 -0.926114
-0.260526 0.223086 0.148422 -0.136800 -0.936108 0.324018
-0.251053 0.226191 0.148422 -0.174268 -0.980996 0.085310
-0.241579 0.227353 0.148422 -0.273442 -0.942284 -0.193209
-0.156316 0.242107 0.146978 -0.678789 0.512429 0.525987
-0.154197 0.242107 0.148422 -0.244330 0.448785 0.859590
-0.137369 0.232309 0.148422 -0.147217 0.972386 -0.181088
-0.127895 0.226642 0.148422 -0.194663 0.977555 0.080583
-0.118421 0.235853 0.148422 -0.103826 0.948210 -0.300196
-0.108947 0.242107 0.144190 0.052817 0.991531 0.118648
-0.108947 0.240517 0.148422 -0.225206 0.974205 0.014356
-0.099474 0.238404 0.148422 -0.202658 0.979089 -0.017745
-0.090000 0.242107 0.146841 0.321788 0.936607 -0.138633
-0.090000 0.239960 0.148422 -0.185789 0.976370 -0.110380
-0.084846 0.242107 0.148422 -0.511011 0.770312 -0.381427
-0.042632 0.242107 0.146769 -0.899579 -0.221963 0.376152
-0.033158 0.242107 0.143697 -0.949530 0.256671 0.180311
-0.023684 0.242107 0.148389 -0.914023 0.132818 0.383303
-0.023300 0.242107 0.148422 -0.989571 0.087970 0.114062
0.014210 0.230287 0.148422 -0.879890 0.409484 -0.241074
0.023684 0.234545 0.148422 -0.935340 0.347812 -0.064542
0.033158 0.242107 0.147901 -0.836678 0.426875 -0.343143
0.031391 0.242107 0.148422 -0.918923 0.260392 -0.296272
0.042631 0.242107 0.145239 -0.781232 -0.161302 -0.603041
-0.412105 0.259700 0.148422 -0.724654 0.599164 -0.340411
-0.414332 0.263160 0.148422 -0.259811 0.443133 0.857981
-0.402632 0.263160 0.142899 -0.923209 0.377531 0.071807
-0.410138 0.263160 0.148422 -0.106281 -0.172018 -0.979344
-0.393158 0.263160 0.145284 -0.754538 0.397736 0.521995
-0.383684 0.253282 0.148422 -0.598917 0.495306 0.629262
-0.387372 0.263160 0.148422 -0.028271 0.312040 0.949648
-0.355263 0.263160 0.144697 -0.577253 0.636785 -0.511159
-0.357647 0.263160 0.148422 -0.363069 0.490620 -0.792132
-0.347756 0.263160 0.148422 -0.723397 -0.139969 0.676095
-0.345200 0.263160 0.148422 -0.266139 -0.309746 -0.912813
-0.279474 0.255908 0.148422 -0.149625 0.928431 0.340041
-0.286958 0.263160 0.148422 -0.105797 -0.707946 0.698297
-0.270000 0.251322 0.148422 -0.307012 0.942389 -0.132841
-0.265705 0.263160 0.148422 -0.206903 -0.336915 -0.918520
-0.251053 0.263160 0.144270 -0.167552 -0.976663 -0.134369
-0.156316 0.252566 0.148422 -0.588365 0.048295 0.807152
-0.158234 0.263160 0.148422 -0.328893 -0.143028 0.933473
-0.108947 0.249350 0.148422 -0.597626 0.017365 -0.801587
-0.108947 0.263160 0.145409 -0.175068 0.984547 0.004190
-0.110881 0.263160 0.148422 -0.028110 0.485559 -0.873752
-0.107252 0.263160 0.148422 -0.222850 0.416587 0.881359
-0.083728 0.263160 0.148422 -0.418053 0.241317 -0.875784
-0.042632 0.263160 0.143748 -0.979618 -0.027678 0.198954
-0.033158 0.263160 0.144238 -0.893810 0.010048 0.448334
-0.025862 0.263160 0.148422 -0.776864 -0.071597 0.625584
-0.023684 0.242748 0.148422 -0.952504 0.157631 0.260555
0.014210 0.263160 0.148215 -0.984343 -0.101992 -0.143757
0.013562 0.263160 0.148422 -0.903265 -0.070095 -0.423319
0.014210 0.261107 0.148422 -0.947067 -0.206398 -0.245892
0.019811 0.263160 0.148422 -0.970706 -0.234261 0.053396
0.033158 0.250317 0.148422 -0.940637 0.023492 -0.338599
0.042631 0.263160 0.145263 -0.862186 -0.047638 -0.504347
0.034572 0.263160 0.148422 -0.821872 -0.113572 -0.558236
-0.412105 0.271629 0.148422 -0.200917 -0.852922 0.481826
-0.393158 0.277060 0.148422 -0.047016 0.660108 0.749698
-0.395640 0.284212 0.148422 0.319685 -0.273972 0.907050
-0.355263 0.268220 0.148422 -0.330639 0.891393 -0.309994
-0.348868 0.284212 0.148422 0.023280 -0.314044 -0.949123
-0.345789 0.266252 0.148422 -0.256445 -0.541551 -0.800599
-0.279474 0.266999 0.148422 -0.049352 -0.978787 0.198846
-0.270000 0.273332 0.148422 -0.379223 -0.916107 0.130144
-0.194211 0.284212 0.145397 -0.780634 -0.260049 0.568318
-0.165790 0.284212 0.142512 -0.496986 -0.170269 0.850890
-0.161051 0.284212 0.148422 -0.679134 0.092372 0.728179
-0.108947 0.268023 0.148422 -0.299609 0.882796 0.361808
-0.080526 0.280487 0.148422 -0.414609 -0.191063 -0.889716
-0.080150 0.284212 0.148422 -0.352862 -0.354100 -0.866084
-0.042632 0.284212 0.142441 -0.933153 0.232887 0.273840
-0.033158 0.284212 0.145902 -0.909220 -0.032498 0.415045
-0.023684 0.274557 0.148422 -0.952455 -0.073733 0.295623
-0.023684 0.284212 0.147520 -0.934294 0.278012 0.223167
-0.017423 0.284212 0.148422 -0.980420 -0.047539 0.191091
0.014210 0.284212 0.148058 -0.948129 -0.027983 -0.316651
0.013078 0.284212 0.148422 -0.919250 -0.012695 -0.393469
0.023684 0.265037 0.148422 -0.960134 -0.272673 0.061580
0.023684 0.284212 0.146294 -0.998861 -0.042031 0.022588
0.033158 0.276341 0.148422 -0.967184 -0.215416 -0.134726
0.033158 0.284212 0.148009 -0.850757 -0.205408 -0.483756
-0.393158 0.289054 0.148422 0.114704 -0.811072 0.573590
-0.383684 0.297466 0.148422 0.098292 -0.992977 0.065839
-0.383684 0.305265 0.142127 -0.223965 -0.926278 -0.303065
-0.374211 0.295276 0.148422 0.095501 -0.994789 -0.035705
-0.364737 0.295275 0.148422 0.167580 -0.985458 -0.028103
-0.355263 0.293799 0.148422 -0.237357 -0.925053 -0.296545
-0.159247 0.305265 0.148422 -0.256052 -0.470248 0.844573
-0.118421 0.305265 0.146395 -0.566337 -0.706155 -0.424980
-0.121987 0.305265 0.148422 -0.488587 -0.735958 -0.468667
-0.118421 0.298136 0.148422 -0.385275 -0.812928 -0.436705
-0.108947 0.291192 0.148422 -0.213741 -0.976718 -0.018333
-0.108947 0.305265 0.142919 -0.554656 -0.763392 -0.331043
-0.099474 0.293037 0.148422 -0.301106 -0.947144 0.110692
-0.090000 0.302209 0.148422 -0.274571 -0.919891 0.280021
-0.080526 0.286277 0.148422 -0.534419 -0.487887 -0.690190
-0.052105 0.305265 0.144248 -0.973961 -0.138230 0.179700
-0.042632 0.305265 0.143743 -0.972841 0.014192 0.231037
-0.033158 0.305265 0.147467 -0.880442 -0.059925 0.470352
-0.029741 0.305265 0.148422 -0.930280 0.064981 0.361050
-0.023684 0.291548 0.148422 -0.957518 0.252061 0.140090
0.014210 0.305265 0.148126 -0.935736 -0.180191 -0.303198
0.012943 0.305265 0.148422 -0.898150 -0.187111 -0.397889
0.023684 0.305265 0.146417 -0.986783 -0.031349 -0.158984
0.033158 0.305265 0.147071 -0.837364 -0.524191 -0.155068
0.042631 0.305265 0.143068 -0.804488 -0.170714 -0.568908
-0.156316 0.311730 0.148422 -0.269836 -0.877528 0.396401
-0.146842 0.312351 0.148422 -0.129490 -0.990753 -0.040501
-0.137369 0.310022 0.148422 -0.208342 -0.975402 -0.072006
-0.127895 0.310182 0.148422 -0.313246 -0.942062 -0.119985
-0.042632 0.326318 0.142583 -0.887543 -0.278294 0.367178
-0.033158 0.326318 0.144697 -0.892715 0.179508 0.413324
-0.026146 0.326318 0.148422 -0.755481 -0.144744 0.638982
-0.014211 0.326318 0.147661 -0.989235 -0.055675 -0.135334
-0.017379 0.326318 0.148422 -0.944230 0.084911 -0.318151
-0.014211 0.315373 0.148422 -0.980985 -0.173879 -0.086225
-0.004737 0.323445 0.148422 -0.939445 -0.342674 0.004121
-0.004737 0.326318 0.147986 -0.945860 -0.309369 -0.098183
0.004737 0.318798 0.148422 -0.884962 -0.442019 -0.146496
0.004737 0.326318 0.146168 -0.967914 -0.085282 -0.236365
0.014210 0.326318 0.144857 -0.952560 -0.260552 -0.157299
0.023684 0.326318 0.143680 -0.629923 -0.650078 -0.424965
-0.042632 0.347370 0.142829 -0.711375 0.462211 0.529440
-0.033428 0.347370 0.148422 -0.736732 0.203958 0.644691
-0.033158 0.346700 0.148422 -0.901888 0.145258 0.406815
-0.014211 0.333391 0.148422 -0.967410 0.235532 -0.092966
-0.004737 0.344463 0.148422 -0.938791 0.342896 0.033074
0.004737 0.337884 0.148422 -0.944174 0.226457 -0.239277
0.014210 0.347370 0.146170 -0.869128 -0.019240 -0.494213
0.007930 0.347370 0.148422 -0.864951 -0.069943 -0.496959
0.033158 0.347370 0.143347 -0.888645 -0.427660 -0.165583
-0.052105 0.368423 0.143984 -0.852162 -0.403113 0.333646
-0.042632 0.368423 0.145481 -0.945128 -0.016933 0.326260
-0.033893 0.368423 0.148422 -0.798270 0.004400 0.602283
0.014210 0.368423 0.143290 -0.835111 -0.098384 -0.541212
0.005470 0.368423 0.148422 -0.723903 -0.276571 -0.632039
-0.393158 0.389475 0.142745 -0.919611 0.256066 0.297903
-0.042632 0.389475 0.142943 -0.381911 -0.567764 0.729238
-0.033620 0.389475 0.148422 -0.777645 0.184192 0.601116
-0.014211 0.389475 0.148396 -0.934540 -0.317154 -0.161394
-0.014473 0.389475 0.148422 -0.988737 -0.066993 -0.133835
-0.014211 0.389258 0.148422 -0.795405 -0.592679 -0.126739
-0.004737 0.385555 0.148422 -0.917330 -0.377644 -0.126056
-0.004737 0.389475 0.146458 -0.951882 0.004062 -0.306437
0.004737 0.371988 0.148422 -0.839986 -0.344632 -0.419108
0.004737 0.389475 0.145708 -0.902362 0.065119 -0.426031
-0.402632 0.410528 0.143682 -0.780184 0.533408 0.326785
-0.393158 0.410528 0.143972 -0.552400 0.739672 -0.384369
-0.033922 0.410528 0.148422 -0.762473 0.169399 0.624452
-0.014211 0.389764 0.148422 -0.963842 0.248139 -0.097140
-0.004737 0.395364 0.148422 -0.878655 0.417955 -0.230822
0.004737 0.408495 0.148422 -0.846060 0.293796 -0.444823
0.014210 0.410528 0.144789 -0.789620 0.207376 -0.577490
0.005245 0.410528 0.148422 -0.832378 0.234717 -0.502050
-0.412105 0.420727 0.148422 -0.299433 0.935989 0.185105
-0.402632 0.421560 0.148422 -0.441384 0.883412 0.157364
-0.393158 0.414822 0.148422 -0.298995 0.933837 -0.196342
-0.383684 0.424824 0.148422 -0.297964 0.953422 -0.046946
-0.383684 0.431581 0.143705 0.881428 0.431927 -0.191113
-0.374211 0.415048 0.148422 -0.481981 0.861675 -0.158776
-0.364737 0.425982 0.148422 -0.129739 0.936526 -0.325710
-0.355418 0.431581 0.148422 -0.226894 -0.216853 -0.949470
-0.042353 0.431581 0.148422 -0.808067 0.182421 0.560134
0.014210 0.431581 0.145820 -0.652109 -0.064949 -0.755338
0.010302 0.431581 0.148422 -0.731685 -0.165875 -0.661152
-0.412105 0.451419 0.148422 -0.248740 -0.924128 0.290027
-0.412105 0.452633 0.146768 -0.606492 -0.787299 0.111029
-0.402632 0.445298 0.148422 -0.466380 -0.876677 0.118012
-0.402632 0.452633 0.145521 -0.794339 -0.556789 0.242924
-0.397187 0.452633 0.148422 -0.574960 -0.461531 0.675582
-0.387120 0.452633 0.148422 -0.466081 -0.703470 -0.536561
-0.383684 0.449176 0.148422 -0.290936 -0.956651 -0.013206
-0.377200 0.452633 0.148422 -0.460374 -0.855567 0.236774
-0.364737 0.452633 0.146727 -0.515203 -0.597464 -0.614493
-0.371459 0.452633 0.148422 -0.596847 -0.755903 -0.269043
-0.364737 0.448294 0.148422 -0.328373 -0.826721 -0.456840
-0.042632 0.452633 0.144803 -0.516130 -0.455657 0.725249
-0.038874 0.452633 0.148422 -0.655567 -0.367127 0.659886
0.006577 0.452633 0.148422 -0.425810 -0.704218 -0.568122
-0.402632 0.473686 0.142867 -0.294807 0.940972 0.166318
-0.397382 0.473686 0.148422 -0.137577 0.799808 0.584277
-0.387874 0.473686 0.148422 -0.260104 0.860319 -0.438402
-0.374211 0.455173 0.148422 -0.592854 -0.804134 -0.043505
-0.033158 0.460590 0.148422 -0.466920 -0.825417 0.317290
-0.023684 0.460041 0.148422 -0.580938 -0.810702 -0.072621
-0.014211 0.456689 0.148422 -0.458122 -0.885454 -0.078070
-0.004737 0.455857 0.148422 -0.534815 -0.844074 -0.038879
0.004737 0.455066 0.148422 -0.414185 -0.887291 -0.202893
-0.412105 0.478684 0.148422 -0.090038 0.987534 0.129110
-0.402632 0.476599 0.148422 0.022190 0.992451 0.120621
-0.383684 0.476599 0.148422 -0.181291 0.932852 -0.311322
-0.374211 0.489030 0.148422 -0.401216 0.810606 -0.426548
-0.364737 0.492071 0.148422 -0.663238 0.598499 -0.449349
-0.355263 0.494739 0.145136 -0.670553 0.362836 -0.647078
-0.363509 0.494739 0.148422 -0.809586 0.010938 -0.586899
-0.364737 0.515791 0.147877 -0.891123 -0.286111 -0.352195
-0.365448 0.515791 0.148422 -0.313047 0.038741 -0.948947
-0.364737 0.503973 0.148422 -0.734113 0.348946 -0.582508
-0.355263 0.511161 0.148422 -0.350548 0.053888 -0.934993
-0.360916 0.515791 0.148422 -0.829676 -0.504462 0.239072
-0.354674 0.515791 0.148422 -0.054852 -0.284094 -0.957226
-0.374211 0.536844 0.145417 0.118340 0.474283 -0.872383
-0.372731 0.536844 0.148422 -0.034449 -0.030272 -0.998948
-0.355263 0.517885 0.148422 -0.390618 -0.849307 -0.355100
-0.364737 0.547835 0.148422 0.076382 0.903210 -0.422348
-0.355263 0.557897 0.148261 0.945965 0.004844 -0.324233
-0.355263 0.557101 0.148422 0.015801 0.958741 -0.283842
-0.345789 0.557897 0.148369 0.477631 -0.712859 -0.513517
-0.345789 0.557724 0.148422 0.460913 0.269222 -0.845623
-0.345750 0.557897 0.148422 0.123183 -0.472666 -0.872590
-0.412105 0.568572 0.148422 0.001407 -0.954671 -0.297661
-0.402632 0.568322 0.148422 0.179270 -0.978904 0.098026
-0.393158 0.574578 0.148422 0.089150 -0.995252 -0.039049
-0.383684 0.566133 0.148422 0.102151 -0.988180 -0.114306
-0.374211 0.566607 0.148422 0.073135 -0.995346 -0.062745
-0.364737 0.563468 0.148422 0.051886 -0.987595 -0.148204
-0.355263 0.558336 0.148422 0.314499 -0.909461 -0.271976
-0.345789 0.557984 0.148422 0.031076 -0.925479 -0.377522
-0.412105 0.610239 0.148422 0.207060 0.943773 -0.257717
-0.402632 0.621055 0.147328 0.828005 -0.099539 -0.551815
-0.402632 0.617271 0.148422 0.121685 0.940457 -0.317385
-0.393158 0.621055 0.148276 0.811871 0.569673 -0.127823
-0.393158 0.620527 0.148422 0.295915 0.948568 -0.112488
-0.391694 0.621055 0.148422 0.216106 0.955323 -0.201632
0.412105 0.617976 0.148422 -0.280122 0.901883 -0.328843
0.410332 0.621055 0.148422 -0.111513 -0.256639 0.960053
0.413536 0.621055 0.148422 -0.029826 -0.257178 -0.965904
-0.412105 0.633824 0.148422 -0.115527 -0.937530 -0.328163
-0.402632 0.623623 0.148422 0.379082 -0.871537 -0.310998
-0.393492 0.642107 0.148422 0.102719 -0.728330 0.677484
-0.393158 0.642107 0.147805 0.070647 -0.948395 0.309120
-0.392808 0.642107 0.148422 0.016609 -0.694476 -0.719324
0.412105 0.624490 0.148422 -0.096660 -0.988377 -0.117334
-0.393158 0.642776 0.148422 0.018515 -0.999624 0.020206
-0.033158 -0.957895 0.150896 -0.815596 -0.453599 0.359238
-0.023684 -0.957895 0.153342 -0.935539 -0.303758 0.180271
-0.014211 -0.969355 0.154737 -0.682877 -0.526783 0.506141
-0.014211 -0.957895 0.153197 -0.952012 0.273811 0.136748
-0.009908 -0.957895 0.154737 -0.666672 -0.004614 0.745337
0.014210 -0.957895 0.149566 -0.711903 -0.325122 -0.622487
0.006050 -0.957895 0.154737 -0.417417 -0.233941 -0.878086
-0.023684 -0.936842 0.148580 -0.582179 -0.546824 0.601707
-0.018021 -0.936842 0.154737 -0.486799 -0.277107 0.828395
-0.014211 -0.949467 0.154737 -0.675574 0.522394 0.520293
0.014210 -0.936842 0.149269 -0.550167 0.167032 -0.818179
0.008060 -0.936842 0.154737 -0.696608 0.089901 -0.711797
-0.014211 -0.928206 0.154737 -0.446170 -0.719351 0.532416
-0.014211 -0.915789 0.149211 -0.741743 0.153970 0.652772
-0.004737 -0.920951 0.154737 -0.628005 -0.730370 0.268644
-0.004737 -0.915789 0.153401 -0.851658 0.354133 0.386353
0.002178 -0.915789 0.154737 -0.922767 -0.090571 0.374565
0.014210 -0.915789 0.152132 -0.841243 0.109713 -0.529408
0.006349 -0.915789 0.154737 -0.869713 0.277324 -0.408277
0.023684 -0.915789 0.148660 -0.890567 0.062297 -0.450566
-0.061579 -0.894737 0.152254 -0.710444 -0.608094 0.354247
-0.023684 -0.894737 0.149953 -0.650426 -0.190629 0.735260
-0.018501 -0.894737 0.154737 -0.406901 -0.214021 0.888047
-0.014211 -0.904632 0.154737 -0.430732 0.755666 0.493395
-0.004737 -0.912283 0.154737 -0.438155 0.874524 0.207911
0.014210 -0.897684 0.154737 -0.465721 0.541703 -0.699758
0.014855 -0.894737 0.154737 -0.310401 -0.060826 -0.948658
-0.014211 -0.885984 0.154737 -0.316723 -0.890589 0.326400
-0.014211 -0.873684 0.149240 -0.248861 -0.947211 -0.202136
-0.004737 -0.886450 0.154737 -0.217532 -0.975127 0.042499
0.004737 -0.883753 0.154737 -0.181466 -0.981959 0.053166
0.014210 -0.892808 0.154737 -0.195876 -0.707083 -0.679460
0.419851 -0.789473 0.154737 0.233817 0.840789 0.488265
0.412105 -0.768421 0.148619 -0.052070 0.889000 0.454937
0.415646 -0.768421 0.154737 -0.436447 0.527472 0.728894
0.336316 -0.747368 0.153467 -0.345771 0.628792 0.696465
0.343334 -0.747368 0.154737 0.572926 0.473472 0.669014
0.345789 -0.747996 0.154737 -0.094765 0.982399 -0.160970
0.345789 -0.747368 0.152275 -0.016746 -0.260938 -0.965210
0.346046 -0.747368 0.154737 0.204755 -0.333262 -0.920332
0.374210 -0.755871 0.154737 -0.132892 0.413912 0.900565
0.373128 -0.747368 0.154737 -0.120268 0.007476 0.992713
0.383684 -0.757665 0.154737 -0.000068 0.998578 0.053316
0.393158 -0.758654 0.154737 -0.218685 0.974057 0.058223
0.402631 -0.760043 0.154737 -0.242340 0.967622 0.070566
0.412105 -0.763590 0.154737 -0.378569 0.869893 0.316182
0.336316 -0.736598 0.154737 0.423032 -0.151613 0.893341
0.335557 -0.726315 0.154737 0.123473 0.035634 0.991708
0.342366 -0.742503 0.152546 -0.076894 -0.870176 -0.486703
0.337404 -0.726315 0.154737 0.187746 -0.511309 -0.838638
0.345789 -0.746412 0.154737 0.309442 -0.747416 -0.587889
0.354097 -0.726315 0.154737 0.258189 -0.699077 0.666806
0.355263 -0.727917 0.154737 0.358536 0.932821 0.036010
0.364737 -0.726315 0.149493 -0.331440 0.588208 0.737671
0.357925 -0.726315 0.154737 0.413964 0.146265 -0.898466
0.366887 -0.726315 0.154737 0.013698 0.243144 0.969893
0.393158 -0.726315 0.148607 0.760420 -0.117670 0.638682
0.411499 -0.726315 0.154737 -0.142154 0.166999 -0.975655
0.412105 -0.728478 0.154737 -0.656458 0.708802 -0.258192
0.412749 -0.726315 0.154737 -0.135758 0.338478 0.931130
0.336316 -0.721101 0.154737 0.148153 -0.823337 0.547874
0.355263 -0.724914 0.154737 0.071757 -0.995347 0.064300
0.374210 -0.711059 0.154737 -0.134527 -0.920191 0.367628
0.383684 -0.712275 0.154737 -0.092099 -0.989047 0.115338
0.393158 -0.705263 0.152947 -0.147611 -0.646001 0.748928
0.392088 -0.705263 0.154737 -0.008038 -0.768837 0.639394
0.412105 -0.722643 0.154737 -0.209342 0.732316 -0.647988
0.412105 -0.705263 0.149171 0.505724 0.486031 -0.712753
0.393158 -0.684210 0.153123 0.270106 -0.792198 0.547233
0.391535 -0.684210 0.154737 -0.099780 -0.786001 0.610120
0.393158 -0.683005 0.154737 0.035731 -0.961305 0.273158
0.402631 -0.678941 0.154737 -0.011781 -0.999488 0.029761
0.412105 -0.680434 0.154737 -0.106606 -0.989699 -0.095551
-0.232105 0.031580 0.151613 0.358194 0.927301 0.108677
-0.232105 0.027899 0.154737 0.015405 0.992853 -0.118346
-0.238401 0.031580 0.154737 0.089754 0.887675 0.451638
-0.222632 0.031580 0.150777 -0.121791 0.511929 -0.850350
-0.228381 0.031580 0.154737 0.116676 0.729225 -0.674254
-0.251053 0.052633 0.151248 -0.540059 -0.544333 0.641901
-0.241579 0.052633 0.149817 -0.537956 -0.801991 0.259642
-0.240284 0.052633 0.154737 0.097522 0.008173 0.995200
-0.229001 0.052633 0.154737 -0.233534 -0.134935 -0.962940
-0.222632 0.052633 0.150254 -0.391839 0.661495 -0.639442
0.004737 0.052633 0.150505 -0.848076 0.361821 -0.387107
-0.232105 0.070126 0.154737 0.496390 0.544539 0.676073
-0.222632 0.069895 0.154737 -0.390397 -0.582887 -0.712624
-0.229158 0.073686 0.154737 -0.094218 0.306426 0.947220
-0.220064 0.073686 0.154737 0.030582 -0.554266 -0.831778
-0.033158 0.073686 0.148437 -0.958113 0.167763 0.232111
-0.023684 0.073686 0.149505 -0.889776 0.451730 0.065103
-0.014211 0.073686 0.149577 -0.816642 0.553073 0.164943
-0.005333 0.073686 0.154737 -0.643891 0.407579 0.647521
-0.004737 0.072904 0.154737 -0.872029 0.446378 0.200780
0.004737 0.073686 0.153025 -0.617923 0.775285 -0.130783
-0.003090 0.073686 0.154737 -0.924338 0.206280 -0.321012
0.014210 0.073686 0.152350 -0.814346 0.420798 -0.399711
0.033158 0.073686 0.150208 -0.957402 0.223938 0.182298
-0.241579 0.089238 0.154737 -0.234588 0.926650 0.293749
-0.246660 0.094738 0.154737 -0.187214 0.685922 0.703180
-0.232105 0.086494 0.154737 -0.310134 -0.570778 -0.760283
-0.231740 0.094738 0.154737 -0.079958 -0.379329 -0.921801
-0.222632 0.076238 0.154737 -0.062562 -0.986519 -0.151216
-0.023684 0.094738 0.151778 -0.871348 -0.299351 0.388769
-0.014211 0.094738 0.152255 -0.973717 0.009724 0.227552
-0.006485 0.094738 0.154737 -0.815347 -0.255323 0.519634
0.004737 0.091284 0.154737 -0.829799 0.530190 0.174160
0.014210 0.083831 0.154737 -0.700855 0.514614 -0.493938
0.023684 0.094738 0.150835 -0.904293 -0.292364 -0.311091
0.017865 0.094738 0.154737 -0.618107 -0.141124 -0.773323
0.033158 0.094738 0.151752 -0.941803 0.203835 -0.267318
-0.241579 0.115791 0.153371 -0.316916 -0.917044 0.242061
-0.242035 0.115791 0.154737 -0.422091 -0.554169 0.717451
-0.232105 0.100804 0.154737 -0.380467 -0.192357 -0.904568
-0.240908 0.115791 0.154737 -0.469058 -0.768593 -0.435027
-0.232105 0.115791 0.149893 -0.770023 0.364784 0.523448
-0.222632 0.115791 0.153555 -0.570011 -0.791041 -0.222131
-0.127895 0.115791 0.151864 0.102905 0.708167 0.698505
-0.127895 0.112656 0.154737 -0.407973 0.720868 0.560274
-0.128522 0.115791 0.154737 -0.101339 -0.059135 0.993093
-0.126371 0.115791 0.154737 -0.453314 0.498812 -0.738710
-0.004737 0.096559 0.154737 -0.575864 -0.785720 0.225886
-0.004737 0.115791 0.148591 -0.941696 -0.265892 0.206178
0.004737 0.096340 0.154737 -0.703692 -0.697743 0.134061
0.004737 0.115791 0.149887 -0.779334 -0.600889 0.177679
0.014210 0.104747 0.154737 -0.706105 -0.685452 -0.177686
0.014210 0.115791 0.151098 -0.716433 -0.542942 -0.438106
0.033158 0.115791 0.149077 -0.824913 -0.560549 -0.072821
-0.241579 0.116481 0.154737 -0.385541 -0.917750 0.095356
-0.129257 0.136844 0.154737 -0.426980 0.061824 0.902145
-0.125022 0.136844 0.154737 -0.643762 -0.448273 -0.620178
-0.004737 0.136844 0.148884 -0.956025 -0.285090 -0.068839
-0.127895 0.141155 0.154737 -0.310661 -0.827946 0.466899
-0.023684 0.157896 0.148699 -0.965675 -0.137522 0.220364
-0.014211 0.157896 0.149744 -0.999087 0.024197 -0.035216
0.004737 0.157896 0.150557 -0.920104 -0.391440 0.013560
-0.393158 0.199356 0.154737 -0.195110 0.972389 0.128027
-0.393740 0.200001 0.154737 -0.289901 0.335452 0.896342
-0.391545 0.200001 0.154737 -0.605222 0.510810 -0.610557
-0.014211 0.200001 0.148539 -0.965889 0.221021 0.134935
-0.004737 0.200001 0.148995 -0.992880 0.096033 -0.070475
-0.393158 0.202019 0.154737 -0.486595 -0.713498 0.504128
-0.260526 0.221054 0.148700 -0.970539 -0.138796 0.196951
-0.251053 0.221054 0.149843 -0.961918 -0.162709 0.219634
-0.241579 0.221054 0.151752 -0.925633 -0.212728 -0.312969
-0.146842 0.221054 0.148465 -0.828992 0.514009 -0.220378
-0.014211 0.221054 0.148938 -0.969297 0.021061 0.244988
-0.004737 0.221054 0.149584 -0.976176 0.079612 0.201849
0.004737 0.221054 0.151289 -0.989823 0.053366 -0.131919
-0.393158 0.242107 0.148992 0.964749 -0.008808 0.263026
-0.393158 0.233687 0.154737 -0.350086 0.936714 0.002568
-0.400181 0.242107 0.154737 0.227562 0.474055 0.850581
-0.387740 0.242107 0.154737 -0.048580 0.455642 -0.888837
-0.374211 0.235383 0.154737 -0.550594 0.796995 0.248283
-0.377729 0.242107 0.154737 -0.228149 0.486003 0.843652
-0.364737 0.241936 0.154737 -0.189498 0.792138 -0.580179
-0.364668 0.242107 0.154737 -0.139806 0.383202 -0.913023
-0.345789 0.242107 0.151598 -0.615054 0.720758 0.319714
-0.146842 0.232409 0.154737 -0.502967 0.851424 -0.148667
-0.151856 0.242107 0.154737 -0.345378 0.437407 0.830294
-0.137369 0.240544 0.154737 -0.694621 0.646829 -0.314824
-0.127895 0.242107 0.153026 -0.570116 0.791761 -0.219276
-0.134377 0.242107 0.154737 -0.880717 0.268575 -0.390134
-0.118421 0.242107 0.150536 -0.570059 0.815716 -0.098180
-0.108947 0.242107 0.152344 -0.810655 0.559079 -0.173981
-0.099474 0.242107 0.150530 -0.574596 0.809249 -0.122294
-0.090000 0.242107 0.149295 -0.654166 0.744867 -0.131303
-0.014211 0.242107 0.149064 -0.998336 -0.034555 0.046160
-0.004737 0.242107 0.148980 -0.977168 0.100840 0.187015
0.004737 0.242107 0.151369 -0.990872 0.001145 0.134801
0.014210 0.242107 0.150017 -0.989194 -0.071606 -0.127939
0.023684 0.242107 0.150018 -0.986650 0.035528 -0.158930
-0.412105 0.263160 0.152272 -0.262318 -0.487090 0.833026
-0.402632 0.259856 0.154737 -0.374296 0.831775 0.409943
-0.404263 0.263160 0.154737 -0.410042 0.880840 0.236613
-0.402632 0.263160 0.154524 0.996655 -0.046434 0.067256
-0.393158 0.263160 0.154510 0.600966 0.793548 0.095507
-0.383684 0.258324 0.154737 -0.172478 -0.983795 -0.048973
-0.362045 0.263160 0.154737 -0.288893 0.562778 -0.774481
-0.345789 0.263160 0.151274 -0.577255 -0.220787 -0.786149
-0.279474 0.257712 0.154737 -0.419470 0.906073 0.055460
-0.283973 0.263160 0.154737 -0.250085 -0.612358 0.749983
-0.270000 0.263160 0.152612 -0.557242 -0.000670 -0.830350
-0.273731 0.263160 0.154737 -0.299094 -0.621095 -0.724420
-0.156316 0.257974 0.154737 -0.636098 -0.115290 0.762947
-0.157298 0.263160 0.154737 -0.284962 -0.377853 0.880922
-0.137369 0.263160 0.149102 -0.383168 0.639221 0.666767
-0.142487 0.263160 0.154737 -0.561604 0.241365 -0.791419
-0.137369 0.245839 0.154737 -0.820016 -0.445171 -0.359717
-0.127895 0.246362 0.154737 -0.580100 0.808277 -0.100852
-0.134037 0.263160 0.154737 -0.456843 0.380353 0.804131
-0.118421 0.249497 0.154737 -0.587291 0.805235 -0.081769
-0.109520 0.263160 0.154737 -0.428776 0.636774 -0.640836
-0.099474 0.257606 0.154737 -0.798474 0.547480 -0.250410
-0.107356 0.263160 0.154737 -0.848133 0.454323 0.272509
-0.090000 0.263160 0.152287 -0.778502 0.260559 -0.571003
-0.095927 0.263160 0.154737 -0.886722 0.142360 -0.439839
-0.023684 0.263160 0.149332 -0.981019 -0.174107 0.085379
-0.014211 0.263160 0.148639 -0.991792 0.081988 0.098112
-0.004737 0.263160 0.150102 -0.988113 0.021013 0.152289
0.004737 0.263160 0.150587 -0.986110 -0.058688 -0.155379
0.023684 0.263160 0.148548 -0.980429 -0.187662 0.059506
0.033158 0.263160 0.149087 -0.971635 -0.187223 -0.144475
-0.402632 0.265965 0.154737 -0.589741 -0.628268 0.507429
-0.400298 0.284212 0.154737 -0.245213 -0.083043 0.965906
-0.355263 0.284212 0.153244 -0.040740 -0.140079 -0.989302
-0.356625 0.284212 0.154737 -0.188187 -0.051089 -0.980804
-0.345789 0.266804 0.154737 -0.402421 0.914569 -0.040256
-0.345789 0.284212 0.151581 0.097552 -0.824528 -0.557348
-0.351551 0.284212 0.154737 -0.223595 -0.673810 0.704263
-0.343918 0.284212 0.154737 -0.117917 -0.475129 -0.871979
-0.279474 0.265947 0.154737 -0.051339 -0.998490 0.019563
-0.156316 0.266863 0.154737 -0.422160 -0.514353 0.746473
-0.156316 0.284212 0.150547 -0.674724 0.284204 0.681158
-0.152082 0.284212 0.154737 -0.376114 -0.026465 0.926195
-0.137369 0.270528 0.154737 -0.613821 0.789358 -0.011744
-0.118421 0.284212 0.152255 -0.837632 -0.519400 -0.169101
-0.122804 0.284212 0.154737 -0.566764 -0.561056 -0.603319
-0.118421 0.277364 0.154737 -0.940866 -0.316511 -0.120795
-0.114204 0.284212 0.154737 -0.557295 -0.553456 0.618957
-0.108947 0.265196 0.154737 -0.747189 0.510709 -0.425307
-0.099474 0.284212 0.153636 -0.810693 -0.548252 -0.205421
-0.102471 0.284212 0.154737 -0.681963 -0.604274 -0.412043
-0.099474 0.274400 0.154737 -0.972995 -0.029300 -0.228958
-0.090000 0.284212 0.152694 -0.859681 -0.361209 -0.361216
-0.080526 0.284212 0.148843 -0.689603 -0.218002 -0.690596
-0.014211 0.284212 0.148881 -0.965093 -0.044546 0.258090
-0.004737 0.284212 0.151033 -0.991533 -0.015114 0.128969
0.004737 0.284212 0.150659 -0.973583 0.071664 -0.216797
-0.393158 0.296145 0.154737 -0.366285 -0.868588 0.333752
-0.383684 0.291235 0.154737 -0.473648 -0.879250 0.050764
-0.374211 0.299813 0.154737 -0.408649 -0.890665 0.199302
-0.364737 0.300718 0.154737 -0.312618 -0.885149 -0.344647
-0.345789 0.287267 0.154737 -0.000810 -0.986335 -0.164748
-0.156316 0.305265 0.154537 -0.355366 -0.803647 0.477354
-0.155551 0.305265 0.154737 -0.757269 -0.639256 0.133777
-0.137369 0.305265 0.152511 -0.494356 -0.862564 -0.107683
-0.143769 0.305265 0.154737 -0.496568 -0.831423 -0.249311
-0.137369 0.298632 0.154737 -0.697966 -0.686636 -0.203408
-0.127895 0.295144 0.154737 -0.665276 -0.688305 -0.289213
-0.127895 0.305265 0.151890 -0.546803 -0.765945 -0.338135
-0.108947 0.289418 0.154737 -0.339475 -0.940285 0.024912
-0.023684 0.305265 0.150162 -0.990385 -0.015313 0.137490
-0.014211 0.305265 0.148985 -0.996889 -0.078028 0.011176
-0.004737 0.305265 0.150234 -0.973929 -0.155317 0.165344
0.004737 0.305265 0.151052 -0.947292 -0.287654 -0.141042
-0.146842 0.306653 0.154737 -0.309351 -0.949283 -0.056247
-0.023684 0.326318 0.149709 -0.978017 -0.098899 0.183581
-0.033158 0.347370 0.148541 -0.923630 0.064367 0.377841
-0.023684 0.347370 0.149698 -0.909036 0.405847 0.094563
-0.014211 0.347370 0.149980 -0.996572 0.053421 -0.063170
-0.004737 0.347370 0.148478 -0.927623 0.373341 -0.011444
0.004737 0.347370 0.149456 -0.989821 0.017907 -0.141186
-0.033158 0.368423 0.148866 -0.780311 0.039751 0.624127
-0.023684 0.368423 0.152429 -0.982352 -0.066505 0.174820
-0.014211 0.368423 0.150491 -0.993654 -0.016336 -0.111291
-0.004737 0.368423 0.152067 -0.947741 -0.278086 -0.156381
0.004737 0.368423 0.148845 -0.816927 -0.128833 -0.562167
-0.033158 0.389475 0.148561 -0.957658 -0.028748 0.286471
-0.023684 0.389475 0.149333 -0.995295 -0.081926 -0.051739
-0.033158 0.410528 0.148683 -0.905625 0.232994 0.354339
-0.023684 0.410528 0.150264 -0.988449 0.105737 0.108573
-0.014211 0.410528 0.149945 -0.994908 0.097603 -0.025126
-0.004737 0.410528 0.150058 -0.967803 0.208212 -0.141439
0.004737 0.410528 0.148592 -0.909241 0.262936 -0.322716
-0.412105 0.431581 0.154604 -0.574218 0.813165 -0.095061
-0.402632 0.431581 0.151316 -0.798888 0.601432 -0.007601
-0.395787 0.431581 0.154737 -0.672758 0.332273 0.661053
-0.393158 0.426509 0.154737 -0.486082 0.870735 -0.074469
-0.383684 0.431581 0.151931 -0.983153 0.075759 -0.166346
-0.390020 0.431581 0.154737 -0.674477 0.330062 -0.660409
-0.374211 0.431581 0.153691 -0.727144 0.686136 0.021886
-0.364737 0.431581 0.151484 -0.809768 0.474589 -0.345022
-0.033158 0.431581 0.150629 -0.984915 0.092401 0.146306
-0.023684 0.431581 0.150993 -0.998084 0.048368 -0.038575
-0.014211 0.431581 0.149985 -0.996221 0.082117 -0.028302
-0.004737 0.431581 0.151346 -0.994187 -0.069789 0.081980
0.004737 0.431581 0.150674 -0.928592 0.154311 -0.337498
-0.393158 0.440495 0.154737 -0.864898 -0.433412 0.253192
-0.393158 0.452633 0.150887 -0.929069 -0.367983 0.037688
-0.374211 0.452633 0.149215 -0.692042 -0.720856 -0.038004
-0.033158 0.452633 0.150629 -0.829578 -0.530772 0.173440
-0.023684 0.452633 0.150390 -0.929939 -0.366032 -0.035141
-0.014211 0.452633 0.150142 -0.806890 -0.588470 -0.051300
-0.004737 0.452633 0.149572 -0.863301 -0.501803 -0.053905
0.004737 0.452633 0.149371 -0.792474 -0.513374 -0.329290
-0.402632 0.473686 0.153589 0.071302 0.984044 0.163016
-0.402632 0.472233 0.154737 -0.683883 0.714644 0.146928
-0.404306 0.473686 0.154737 -0.002097 0.953256 0.302156
-0.395373 0.473686 0.154737 -0.230757 0.971105 -0.060879
-0.393158 0.473686 0.154246 -0.200524 0.914907 -0.350336
-0.412105 0.477260 0.154737 -0.047513 0.962243 0.268014
-0.393158 0.473906 0.154737 -0.269677 0.936825 -0.222787
-0.383684 0.481802 0.154737 -0.363420 0.885569 -0.289298
-0.374211 0.486921 0.154737 -0.398785 0.860552 -0.316893
-0.364737 0.494739 0.149402 0.193132 0.672914 -0.714064
-0.368121 0.494739 0.154737 -0.384508 0.143390 -0.911917
-0.369236 0.515791 0.154737 -0.317347 -0.040138 -0.947460
-0.355263 0.515791 0.150949 -0.200615 -0.704974 -0.680269
-0.369959 0.536844 0.154737 -0.144192 0.416730 -0.897522
-0.364737 0.545839 0.154737 -0.080595 0.848109 -0.523655
-0.355263 0.557897 0.149726 -0.444188 -0.099291 -0.890415
-0.356616 0.557897 0.154737 -0.405570 -0.563525 -0.719689
-0.345789 0.557897 0.148517 -0.113087 -0.599847 -0.792083
-0.412105 0.566936 0.154737 0.062118 -0.997266 0.040018
-0.402632 0.569622 0.154737 0.016419 -0.987364 0.157617
-0.393158 0.574375 0.154737 0.068918 -0.985225 -0.156789
-0.383684 0.563535 0.154737 -0.072619 -0.987698 -0.138488
-0.374211 0.568257 0.154737 -0.062232 -0.997492 0.033713
-0.364737 0.563276 0.154737 -0.133442 -0.973306 -0.186733
-0.412105 0.619262 0.154737 -0.552884 0.824350 0.121514
-0.402632 0.607148 0.154737 -0.059636 0.993603 0.095901
-0.393158 0.621055 0.148930 -0.311685 0.908978 -0.276789
-0.398421 0.621055 0.154737 -0.485985 -0.407028 -0.773399
0.412105 0.620891 0.154737 0.000146 0.994566 -0.104111
0.412013 0.621055 0.154737 -0.032226 -0.389350 0.920526
0.412193 0.621055 0.154737 -0.027520 -0.358816 -0.933003
-0.412105 0.621884 0.154737 -0.364715 -0.930392 0.036783
-0.402632 0.625191 0.154737 -0.114607 -0.993316 -0.013716
-0.393158 0.642107 0.149080 -0.070038 -0.980403 -0.184133
0.412105 0.621245 0.154737 -0.037446 -0.999038 -0.022805
-0.014211 -0.968521 0.161053 -0.373294 -0.696593 0.612707
-0.004737 -0.965821 0.161053 -0.448538 -0.890643 -0.074625
-0.004737 -0.957895 0.159925 -0.902543 -0.430301 0.016044
0.004737 -0.957895 0.156685 -0.329379 -0.338211 -0.881546
-0.014211 -0.936842 0.157447 -0.783901 -0.424835 0.452785
-0.004737 -0.936842 0.159738 -0.904372 -0.426559 0.012568
0.004737 -0.936842 0.157429 -0.800809 0.073764 -0.594360
0.004737 -0.915789 0.155576 -0.969093 0.158884 -0.188718
-0.014211 -0.894756 0.161053 -0.349451 0.836783 0.421520
-0.014225 -0.894737 0.161053 -0.368484 0.179126 0.912213
-0.004737 -0.899534 0.161053 -0.353129 0.917959 0.180695
0.004737 -0.902513 0.161053 -0.345121 0.897458 -0.274702
0.014210 -0.894737 0.157449 -0.380431 0.033282 -0.924210
0.012163 -0.894737 0.161053 -0.577089 -0.118951 -0.807972
-0.014211 -0.894708 0.161053 -0.495081 -0.742359 0.451440
-0.004737 -0.893122 0.161053 -0.203143 -0.977907 0.049309
0.004737 -0.890103 0.161053 -0.224722 -0.974315 -0.014528
0.418881 -0.789473 0.161053 -0.087839 0.925787 0.367700
0.336316 -0.747368 0.157585 0.356792 0.751869 0.554430
0.336316 -0.749259 0.161053 -0.057524 0.960892 0.270881
0.335221 -0.747368 0.161053 -0.100421 0.385446 0.917250
0.345789 -0.752234 0.161053 -0.087100 0.857250 -0.507479
0.349049 -0.747368 0.161053 0.086858 0.223773 -0.970763
0.374210 -0.752961 0.161053 -0.093190 0.823611 0.559447
0.372498 -0.747368 0.161053 -0.048194 0.169192 0.984404
0.383684 -0.755048 0.161053 -0.024268 0.993015 -0.115465
0.393158 -0.749654 0.161053 -0.108847 0.994014 0.009434
0.402631 -0.753278 0.161053 -0.240497 0.970647 0.002450
0.412105 -0.747368 0.160559 -0.799036 0.407943 -0.441728
0.411283 -0.747368 0.161053 -0.414306 0.674134 -0.611469
0.332426 -0.726315 0.161053 -0.003189 -0.468762 0.883319
0.345191 -0.726315 0.161053 0.114509 -0.229188 -0.966623
0.345789 -0.727258 0.161053 0.003300 0.991302 -0.131566
0.347349 -0.734280 0.158052 0.838482 -0.472791 -0.270955
0.355263 -0.732094 0.161053 0.100011 0.972043 -0.212438
0.346367 -0.726315 0.161053 -0.124053 0.710011 0.693178
0.364737 -0.726315 0.157296 0.696298 0.038419 0.716724
0.364737 -0.730973 0.161053 -0.022100 0.991987 0.124391
0.409211 -0.726315 0.161053 -0.121354 -0.034375 -0.992014
0.336316 -0.718842 0.161053 -0.009087 -0.951693 0.306917
0.355263 -0.721965 0.161053 0.046317 -0.995120 0.087130
0.364737 -0.719899 0.161053 -0.021670 -0.985275 0.169596
0.374210 -0.714217 0.161053 -0.204529 -0.973844 0.098977
0.383684 -0.716993 0.161053 -0.402314 -0.902645 -0.152890
0.393158 -0.724726 0.161053 -0.896806 -0.442397 -0.004784
0.393158 -0.705263 0.156288 -0.328541 -0.305107 0.893852
0.395932 -0.705263 0.161053 -0.284122 -0.322706 0.902848
0.412105 -0.705263 0.157831 -0.859101 -0.399365 -0.320083
0.407679 -0.705263 0.161053 -0.468774 -0.141942 -0.871839
0.393158 -0.684210 0.156556 -0.229176 -0.883887 0.407703
0.396931 -0.684210 0.161053 -0.120807 -0.851593 0.510093
0.412105 -0.684210 0.158219 -0.399007 -0.866349 -0.300389
0.407207 -0.684210 0.161053 -0.052671 -0.838231 -0.542766
0.402631 -0.681230 0.161053 -0.052864 -0.995836 -0.074274
-0.232105 0.029110 0.161053 -0.474112 0.872980 0.114561
-0.234490 0.031580 0.161053 -0.544799 0.548448 0.634350
-0.222632 0.031580 0.159646 0.791780 -0.071551 -0.606601
-0.222632 0.030052 0.161053 -0.314129 0.935803 -0.159986
-0.220472 0.031580 0.161053 -0.496165 0.347701 -0.795565
-0.241579 0.052633 0.156468 0.136436 -0.346249 0.928168
-0.241579 0.044636 0.161053 -0.873598 0.340511 0.347676
-0.245195 0.052633 0.161053 -0.683003 -0.384099 0.621269
-0.227559 0.052633 0.161053 -0.171324 -0.288557 -0.942010
-0.222632 0.035733 0.161053 -0.776702 -0.536542 -0.329936
-0.241579 0.057109 0.161053 -0.394056 -0.891831 0.222165
-0.232105 0.059794 0.161053 -0.665513 -0.744357 -0.055002
-0.224795 0.071153 0.159520 -0.420122 0.406258 0.811451
-0.222632 0.072546 0.161053 -0.534401 -0.845222 -0.003912
-0.222925 0.073686 0.161053 -0.489081 -0.626789 0.606577
-0.222331 0.073686 0.161053 -0.516932 -0.512313 -0.685797
-0.004737 0.073686 0.155016 -0.951955 0.184047 0.244760
-0.241579 0.094738 0.157968 -0.966875 0.228164 0.114426
-0.232105 0.094738 0.155722 -0.203831 -0.274595 -0.939708
-0.222632 0.074621 0.161053 -0.807409 -0.589992 -0.000022
-0.004737 0.094738 0.155449 -0.808941 -0.559732 0.179764
0.004737 0.094738 0.155135 -0.978255 -0.119652 0.169415
