ply
format ascii 1.0
element vertex 827
property float x
property float y
property float z
property float nx
property float ny
property float nz
end_header
0.270000 -0.578947 -0.027975 -0.855831 0.257193 0.448782
0.279473 -0.590321 -0.022105 -0.913547 -0.338433 0.225597
0.279473 -0.578947 -0.024109 -0.959018 0.217816 0.181221
0.288947 -0.578947 -0.026275 -0.996075 -0.023363 0.085372
0.298421 -0.578947 -0.023143 -0.872923 0.136136 0.468479
0.300373 -0.578947 -0.022105 -0.757613 -0.132583 0.639097
0.317368 -0.578947 -0.024531 -0.917639 -0.145019 -0.370012
0.312550 -0.578947 -0.022105 -0.616638 0.069436 -0.784179
0.326842 -0.583207 -0.022105 -0.948862 -0.225946 0.220476
0.326842 -0.578947 -0.022907 -0.960606 0.139906 0.240129
0.336316 -0.578947 -0.022527 -0.831799 0.057685 -0.552071
0.345789 -0.578947 -0.028275 -0.995784 0.089731 0.019038
0.355263 -0.578947 -0.025996 -0.985077 -0.048255 0.165210
0.364737 -0.578947 -0.025663 -0.976464 0.099447 -0.191386
0.402631 -0.578947 -0.026785 -0.936152 -0.325203 0.133648
0.108947 -0.557894 -0.027856 -0.884266 0.206287 0.418950
0.118421 -0.557894 -0.022872 -0.775793 0.539639 0.327009
0.127895 -0.557894 -0.024557 -0.607995 0.793356 0.030463
0.134811 -0.557894 -0.022105 -0.579285 0.780814 0.234007
0.137368 -0.559419 -0.022105 -0.290546 0.893284 0.342967
0.146842 -0.571790 -0.022105 0.086951 0.628172 0.773201
0.175263 -0.557894 -0.027531 0.908023 0.049905 -0.415937
0.184737 -0.557894 -0.022227 0.433449 -0.151152 -0.888412
0.184804 -0.557894 -0.022105 0.231994 -0.078694 -0.969529
0.232105 -0.557894 -0.027684 -0.852581 0.349857 0.388208
0.241579 -0.557894 -0.025419 -0.913401 0.403069 -0.056864
0.251052 -0.557894 -0.027497 -0.876174 0.480611 -0.036509
0.260526 -0.557894 -0.026484 -0.914778 0.310268 0.258680
0.270000 -0.557894 -0.024099 -0.806581 0.384764 0.448757
0.274584 -0.557894 -0.022105 -0.835456 0.316389 0.449345
0.279473 -0.567338 -0.022105 -0.915809 0.395677 -0.068803
0.288947 -0.557894 -0.025395 -0.883774 0.464507 -0.056368
0.282794 -0.557894 -0.022105 -0.791691 0.115221 -0.599958
0.296124 -0.557894 -0.022105 -0.815511 0.286497 0.502854
0.298421 -0.568047 -0.022105 -0.792557 0.255186 0.553835
0.317368 -0.557894 -0.022913 -0.898059 0.144843 -0.415345
0.316524 -0.557894 -0.022105 -0.595807 -0.029787 -0.802575
0.320071 -0.557894 -0.022105 -0.910169 0.147737 0.386996
0.326842 -0.572898 -0.022105 -0.920150 0.355829 0.163432
0.336316 -0.575453 -0.022105 -0.860087 0.301068 -0.411836
0.339701 -0.557894 -0.022105 -0.677689 0.094239 -0.729285
0.355263 -0.557894 -0.026733 -0.670388 0.682060 0.292189
0.363975 -0.557894 -0.022105 -0.691581 0.290302 0.661392
0.364737 -0.559580 -0.022105 -0.780369 0.614979 -0.113246
0.365630 -0.557894 -0.022105 -0.540164 0.570131 -0.619010
0.402631 -0.557894 -0.028081 -0.699379 0.328641 0.634715
0.412105 -0.557894 -0.024376 -0.988892 -0.118256 -0.090048
0.118421 -0.536842 -0.025826 -0.852530 0.120017 0.508713
0.127895 -0.536842 -0.024195 -0.909598 0.186986 0.371037
0.131619 -0.536842 -0.022105 -0.668901 0.193997 0.717591
0.175263 -0.536842 -0.027003 0.899838 -0.211337 -0.381612
0.183805 -0.536842 -0.022105 0.696131 0.160099 -0.699836
0.184737 -0.556577 -0.022105 0.582098 -0.068670 -0.810214
0.232105 -0.536842 -0.026451 -0.908667 0.016585 0.417193
0.241579 -0.536842 -0.023492 -0.987849 0.108294 0.111476
0.251052 -0.536842 -0.025444 -0.954176 0.129118 -0.269958
0.260526 -0.536842 -0.026565 -0.936098 0.140790 0.322333
0.270000 -0.536842 -0.022991 -0.955939 -0.028392 0.292191
0.278352 -0.536842 -0.022105 -0.975467 0.140736 0.169283
0.288947 -0.542924 -0.022105 -0.861380 0.389006 0.326648
0.317368 -0.536842 -0.025607 -0.924613 0.025298 -0.380066
0.314554 -0.536842 -0.022105 -0.439458 -0.025684 -0.897896
0.324341 -0.536842 -0.022105 -0.793165 0.078145 0.603973
0.336316 -0.536842 -0.022899 -0.961931 0.159407 -0.221987
0.331461 -0.536842 -0.022105 -0.845300 0.436559 -0.308034
0.336316 -0.545717 -0.022105 -0.928179 -0.225483 -0.296042
0.345789 -0.536842 -0.024244 -0.800974 0.597354 0.040113
0.355263 -0.536842 -0.022693 -0.814782 0.522063 0.252152
0.357729 -0.536842 -0.022105 -0.703382 0.524806 0.479409
0.374210 -0.540271 -0.022105 -0.547751 0.760634 -0.348433
0.383684 -0.536842 -0.023498 -0.880683 -0.309759 -0.358394
0.378274 -0.536842 -0.022105 -0.963624 -0.047396 -0.263027
0.393158 -0.536842 -0.025428 -0.998355 -0.013341 0.055763
0.402631 -0.536842 -0.023509 -0.979974 0.149369 0.131678
0.412105 -0.536842 -0.023583 -0.975885 0.217516 0.018320
0.099474 -0.515789 -0.023528 -0.544363 0.686146 0.482569
0.107929 -0.515789 -0.022105 -0.830878 0.553467 0.057585
0.108947 -0.515909 -0.022105 -0.766827 0.636330 0.084021
0.118421 -0.521261 -0.022105 -0.745067 0.647270 0.160989
0.127895 -0.524503 -0.022105 -0.891902 0.337712 0.300767
0.165789 -0.515789 -0.027966 0.880128 -0.382955 -0.280571
0.175263 -0.515789 -0.023830 0.906924 -0.026899 -0.420435
0.184737 -0.526907 -0.022105 0.898222 -0.127714 -0.420579
0.184737 -0.515789 -0.022990 0.835463 -0.527231 -0.155015
0.188227 -0.515789 -0.022105 0.977812 -0.035765 -0.206410
0.241579 -0.515789 -0.023262 -0.884647 0.423266 0.195564
0.251052 -0.515789 -0.024921 -0.930421 0.205802 -0.303253
0.260526 -0.515789 -0.027235 -0.930566 -0.135933 0.339956
0.270000 -0.515789 -0.022555 -0.811226 0.191791 0.552384
0.271005 -0.515789 -0.022105 -0.689278 0.296145 0.661206
0.317368 -0.515789 -0.025041 -0.767739 0.610706 -0.193947
0.315054 -0.515789 -0.022105 -0.386895 0.140701 -0.911326
0.319506 -0.515789 -0.022105 -0.388033 0.368002 0.844988
0.336316 -0.532787 -0.022105 -0.651820 0.746275 -0.134925
0.345789 -0.531617 -0.022105 -0.496111 0.866981 0.047091
0.355263 -0.534384 -0.022105 -0.654833 0.730345 0.194397
0.374210 -0.515789 -0.023197 -0.844918 -0.074843 -0.529633
0.367340 -0.515789 -0.022105 -0.773105 0.511423 -0.375173
0.374210 -0.531336 -0.022105 -0.844003 -0.411899 -0.343509
0.402631 -0.515789 -0.025440 -0.683599 -0.383429 0.621028
0.412105 -0.515789 -0.027092 -0.843719 -0.316170 -0.433792
-0.383684 -0.494736 -0.025142 -0.940468 0.118398 0.318592
-0.345789 -0.494736 -0.025481 -0.934385 0.103545 0.340887
-0.336316 -0.494736 -0.023680 -0.886913 0.442430 0.132820
-0.326842 -0.494736 -0.026111 -0.694491 0.663642 -0.277959
-0.137369 -0.494736 -0.027691 -0.844440 0.489694 0.217076
-0.127895 -0.494736 -0.026664 -0.857642 0.421188 -0.295043
-0.108947 -0.494736 -0.028077 -0.916714 0.368798 0.153700
-0.099474 -0.494736 -0.028059 -0.928413 0.330584 -0.169599
-0.080526 -0.494736 -0.028214 -0.898501 0.414892 0.143391
0.090000 -0.494736 -0.022779 -0.774590 0.431144 0.462737
0.096203 -0.494736 -0.022105 -0.950373 0.278094 0.139479
0.099474 -0.504944 -0.022105 -0.955714 0.211495 0.204648
0.156316 -0.494736 -0.026114 0.986287 0.040168 -0.160078
0.165789 -0.494736 -0.025604 0.984160 0.107675 -0.140835
0.175263 -0.494736 -0.024398 0.896618 -0.243247 -0.370009
0.180912 -0.494736 -0.022105 0.902408 -0.006001 -0.430841
0.184737 -0.509477 -0.022105 0.983697 -0.132297 -0.121810
0.190770 -0.494736 -0.022105 0.936356 0.025169 0.350148
0.194210 -0.494736 -0.023500 0.997911 -0.031126 -0.056619
0.194210 -0.503941 -0.022105 0.996934 0.049183 -0.060863
0.197673 -0.494736 -0.022105 0.872001 0.208275 -0.442985
0.213158 -0.494736 -0.024727 0.570482 0.274140 0.774208
0.213158 -0.501505 -0.022105 0.279763 0.910142 0.305573
0.209649 -0.494736 -0.022105 0.754222 0.191965 0.627932
0.222631 -0.501597 -0.022105 -0.060384 0.945532 -0.319879
0.232105 -0.494736 -0.022983 -0.967604 0.201108 0.152640
0.227786 -0.494736 -0.022105 -0.385814 0.630535 -0.673479
0.234842 -0.494736 -0.022105 -0.649178 0.352651 0.673948
0.241579 -0.509666 -0.022105 -0.833149 0.522496 0.181276
0.251052 -0.494736 -0.022667 -0.893430 -0.088761 -0.440347
0.249176 -0.494736 -0.022105 -0.839343 -0.103638 -0.533631
0.260526 -0.494736 -0.027178 -0.961524 -0.229353 0.151225
0.270000 -0.494736 -0.022651 -0.804148 -0.437144 0.402805
0.271762 -0.494736 -0.022105 -0.752986 -0.423477 0.503666
0.288947 -0.494736 -0.022998 -0.977501 -0.183045 -0.104812
0.286733 -0.494736 -0.022105 -0.823838 -0.238550 -0.514183
0.288947 -0.504864 -0.022105 -0.883308 -0.464646 0.062212
0.292811 -0.494736 -0.022105 -0.926037 -0.274522 0.259024
0.317368 -0.504522 -0.022105 -0.919151 0.221482 -0.325741
0.345789 -0.494736 -0.023363 -0.845639 -0.455415 -0.278375
0.344813 -0.494736 -0.022105 -0.702605 -0.058377 -0.709181
0.345789 -0.496210 -0.022105 -0.842801 -0.458072 -0.282589
0.355263 -0.496838 -0.022105 -0.815655 -0.478068 0.325819
0.355263 -0.494736 -0.022696 -0.812240 -0.129422 0.568785
0.356141 -0.494736 -0.022105 -0.714104 0.212772 0.666921
0.374210 -0.510356 -0.022105 -0.674999 0.549687 -0.492159
0.378128 -0.494736 -0.022105 -0.495454 0.176973 -0.850415
0.393158 -0.494736 -0.024859 -0.576031 0.413453 0.705156
0.396883 -0.494736 -0.022105 -0.442594 0.564359 0.696857
0.402631 -0.508778 -0.022105 -0.388302 0.920551 0.042505
0.412105 -0.501480 -0.022105 -0.415766 0.895993 0.156001
-0.412105 -0.473684 -0.024325 -0.530494 0.803219 -0.270951
-0.383684 -0.473684 -0.025819 -0.928740 0.257824 -0.266399
-0.355263 -0.473684 -0.026262 -0.863386 0.053284 0.501723
-0.345789 -0.473684 -0.025631 -0.857768 0.428947 0.283266
-0.337791 -0.473684 -0.022105 -0.807325 0.143725 0.572336
-0.336316 -0.481505 -0.022105 -0.944495 0.295872 0.142789
-0.326842 -0.473684 -0.022323 -0.864960 0.420729 -0.273553
-0.329026 -0.473684 -0.022105 -0.922316 0.369357 -0.113616
-0.317368 -0.473684 -0.026483 -0.743503 0.241116 -0.623752
-0.146842 -0.473684 -0.026160 -0.877932 -0.050840 0.476078
-0.137369 -0.473684 -0.025415 -0.963934 0.135728 0.228928
-0.127895 -0.473684 -0.023565 -0.995497 0.069773 0.064164
-0.118421 -0.473684 -0.024370 -0.968160 0.198221 -0.152890
-0.108947 -0.473684 -0.025317 -0.983793 0.169705 -0.057883
-0.099474 -0.473684 -0.025493 -0.874261 0.102594 -0.474492
-0.080526 -0.473684 -0.025022 -0.887364 -0.032400 0.459930
-0.071053 -0.473684 -0.025076 -0.954791 0.199116 -0.220741
-0.061579 -0.473684 -0.027921 -0.899338 0.356138 -0.253688
-0.052105 -0.473684 -0.028359 -0.970146 -0.184494 0.157415
-0.042632 -0.473684 -0.026280 -0.945371 0.314212 -0.086864
-0.033158 -0.473684 -0.028120 -0.855598 0.433671 -0.282633
0.061579 -0.473684 -0.025800 -0.960635 -0.226899 0.160304
0.071052 -0.473684 -0.027015 -0.995178 0.080718 0.055723
0.080526 -0.473684 -0.026063 -0.954928 0.141174 0.261119
0.089060 -0.473684 -0.022105 -0.783637 -0.066458 0.617653
0.090000 -0.486042 -0.022105 -0.924285 0.051037 0.378276
0.146842 -0.473684 -0.025427 0.992173 0.123510 0.018406
0.156316 -0.473684 -0.026657 0.938157 -0.343331 0.044563
0.165789 -0.473684 -0.026525 0.983588 -0.020625 -0.179249
0.175263 -0.473684 -0.023706 0.911683 0.138736 -0.386765
0.181128 -0.473684 -0.022105 0.910615 -0.006153 -0.413209
0.194210 -0.473684 -0.023961 0.986415 -0.098206 0.131686
0.189174 -0.473684 -0.022105 0.925237 -0.034068 0.377858
0.200527 -0.473684 -0.022105 0.925762 0.095164 -0.365936
0.213158 -0.476053 -0.022105 0.955323 -0.027604 0.294272
0.222631 -0.473684 -0.024970 0.680024 -0.664122 0.310660
0.214639 -0.473684 -0.022105 0.953266 -0.148695 0.263010
0.228518 -0.473684 -0.022105 0.753503 0.332957 -0.566897
0.232105 -0.473684 -0.024478 -0.983323 0.060666 0.171450
0.241579 -0.480447 -0.022105 -0.579302 -0.804425 -0.131567
0.241579 -0.473684 -0.023627 -0.932490 -0.143778 -0.331346
0.270000 -0.473684 -0.026347 -0.908730 -0.198819 0.366988
0.279473 -0.487521 -0.022105 -0.646660 -0.747295 0.152907
0.279473 -0.473684 -0.025543 -0.950125 0.241909 0.196830
0.288947 -0.473684 -0.022755 -0.812110 -0.014881 0.583314
0.289859 -0.473684 -0.022105 -0.762070 0.287053 0.580388
0.345789 -0.473684 -0.023639 -0.796390 0.399149 -0.454360
0.343356 -0.473684 -0.022105 -0.485345 0.361647 -0.796023
0.355263 -0.473684 -0.023040 -0.921168 0.208766 0.328430
0.356922 -0.473684 -0.022105 -0.464758 0.297563 0.833941
0.383684 -0.473684 -0.025215 -0.904703 -0.061571 -0.421571
0.379755 -0.473684 -0.022105 -0.544024 0.007401 -0.839037
0.392339 -0.473684 -0.022105 -0.789245 -0.055740 0.611544
0.393158 -0.479912 -0.022105 -0.781521 0.145736 0.606618
0.412105 -0.473684 -0.022753 -0.976827 -0.204156 -0.064264
0.410733 -0.473684 -0.022105 -0.752172 -0.009248 -0.658903
0.412105 -0.476998 -0.022105 -0.838527 -0.533108 -0.112554
0.416133 -0.473684 -0.022105 -0.753225 -0.598613 0.272608
-0.412105 -0.469754 -0.022105 -0.242071 0.915170 -0.322280
-0.402632 -0.452631 -0.022937 -0.810709 -0.027527 -0.584801
-0.404543 -0.452631 -0.022105 -0.625805 0.182971 -0.758215
-0.393158 -0.452631 -0.026753 -0.973101 0.014789 -0.229903
-0.387492 -0.452631 -0.022105 -0.561642 0.240837 0.791553
-0.383684 -0.463900 -0.022105 -0.763634 0.617790 -0.187613
-0.374211 -0.452631 -0.025389 -0.623519 0.393214 -0.675727
-0.380209 -0.452631 -0.022105 -0.718966 0.272286 -0.639491
-0.355263 -0.452631 -0.024793 -0.626884 0.230414 0.744262
-0.350150 -0.452631 -0.022105 -0.854204 0.331808 0.400298
-0.345789 -0.457324 -0.022105 -0.903132 0.356935 0.238642
-0.326842 -0.472669 -0.022105 -0.818564 0.505265 -0.273239
-0.317368 -0.452631 -0.026423 -0.487758 0.435571 -0.756551
-0.319939 -0.452631 -0.022105 -0.729082 0.238076 -0.641685
-0.146842 -0.452631 -0.028186 -0.459501 0.076778 0.884853
-0.137369 -0.452631 -0.025374 -0.928327 0.343425 0.142364
-0.127895 -0.452631 -0.026019 -0.967006 0.244752 -0.070677
-0.118421 -0.452631 -0.026265 -0.993665 -0.105633 0.038362
-0.108947 -0.452631 -0.025722 -0.992914 -0.045891 0.109612
-0.099474 -0.452631 -0.024946 -0.994380 0.079280 -0.070172
-0.090000 -0.452631 -0.027394 -0.971174 -0.223619 -0.082552
-0.080526 -0.452631 -0.025813 -0.963419 -0.251673 0.092108
-0.071053 -0.452631 -0.025507 -0.987664 -0.062717 -0.143477
-0.061579 -0.452631 -0.027234 -0.836926 -0.221859 -0.500333
-0.042632 -0.452631 -0.025541 -0.842773 0.023879 0.537740
-0.033158 -0.452631 -0.025342 -0.826730 -0.156146 -0.540496
0.080526 -0.452631 -0.026237 -0.888755 0.105969 0.445966
0.088114 -0.452631 -0.022105 -0.811442 0.080361 0.578882
0.146842 -0.452631 -0.027142 0.773559 -0.201300 -0.600903
0.155844 -0.452631 -0.022105 0.904925 0.221154 -0.363595
0.156316 -0.453086 -0.022105 0.971238 -0.033433 0.235753
0.156586 -0.452631 -0.022105 0.850104 0.210438 0.482740
0.165789 -0.452631 -0.026281 0.946424 0.209159 0.246035
0.175263 -0.452631 -0.024297 0.839439 0.268865 -0.472285
0.179863 -0.452631 -0.022105 0.946858 0.123608 -0.296952
0.194210 -0.452631 -0.023047 0.966778 -0.108083 0.231641
0.191062 -0.452631 -0.022105 0.960106 0.022587 0.278724
0.203684 -0.454891 -0.022105 0.991342 -0.053028 -0.120123
0.203684 -0.452631 -0.022252 0.988612 0.032739 -0.146886
0.205125 -0.452631 -0.022105 0.990541 0.031738 -0.133495
0.222631 -0.452631 -0.023799 0.787376 0.211406 0.579091
0.218181 -0.452631 -0.022105 0.931660 0.147749 0.331934
0.232105 -0.470949 -0.022105 0.095482 0.977167 -0.189813
0.241579 -0.467177 -0.022105 -0.439993 0.835082 -0.330218
0.251052 -0.456344 -0.022105 -0.546299 0.708310 -0.447052
0.260526 -0.452631 -0.026395 -0.966287 -0.067488 0.248463
0.253260 -0.452631 -0.022105 -0.695672 0.115643 -0.708990
0.268712 -0.452631 -0.022105 -0.850380 0.141362 0.506824
0.270000 -0.453831 -0.022105 -0.627533 0.692375 0.356117
0.279473 -0.464284 -0.022105 -0.630841 0.766869 0.118117
0.288947 -0.466007 -0.022105 -0.819645 0.377491 0.430909
0.345789 -0.466864 -0.022105 -0.607867 0.677162 -0.414668
0.355263 -0.466898 -0.022105 -0.549319 0.639549 0.537797
0.379029 -0.452631 -0.022105 -0.351566 0.035132 -0.935504
0.393158 -0.470955 -0.022105 -0.710105 -0.444990 0.545651
0.397335 -0.452631 -0.022105 -0.422621 0.170614 0.890102
0.412105 -0.452631 -0.023177 -0.455355 0.472369 -0.754665
0.410863 -0.452631 -0.022105 -0.581987 0.312075 -0.750933
0.417697 -0.452631 -0.022105 -0.858479 0.208281 0.468650
-0.406660 -0.431578 -0.022105 -0.323125 -0.082627 -0.942742
-0.386395 -0.431578 -0.022105 -0.557254 0.158387 0.815096
-0.374211 -0.431578 -0.022720 -0.667299 0.302335 -0.680665
-0.376002 -0.431578 -0.022105 -0.854826 0.393941 -0.337761
-0.355263 -0.431578 -0.024799 -0.745932 0.176567 0.642191
-0.346364 -0.431578 -0.022105 -0.929048 0.061590 0.364798
-0.317368 -0.431578 -0.022301 -0.465050 0.225988 -0.855954
-0.317643 -0.431578 -0.022105 -0.610214 -0.000326 -0.792236
-0.146842 -0.431578 -0.025040 0.150779 0.041034 0.987715
-0.145424 -0.431578 -0.022105 -0.202190 0.448404 0.870662
-0.137369 -0.444193 -0.022105 -0.550645 0.833016 0.053620
-0.127895 -0.440284 -0.022105 -0.614080 0.744644 -0.261557
-0.118421 -0.431578 -0.024618 -0.596411 0.664858 -0.449731
-0.121277 -0.431578 -0.022105 -0.719888 0.438637 -0.537921
-0.108947 -0.431578 -0.025406 -0.948586 0.272863 -0.160408
-0.099474 -0.431578 -0.027542 -0.830496 0.242940 -0.501255
-0.071053 -0.431578 -0.025969 -0.971909 0.158945 0.173580
-0.061579 -0.431578 -0.027477 -0.913752 0.380022 -0.143665
-0.052105 -0.431578 -0.027428 -0.968820 0.211367 0.129273
-0.042632 -0.431578 -0.025077 -0.954194 0.284943 0.091223
-0.033158 -0.431578 -0.026266 -0.837607 0.347393 -0.421584
0.023684 -0.431578 -0.028209 -0.766478 0.607296 0.209051
0.033158 -0.431578 -0.028249 -0.792504 0.607447 -0.054269
0.052105 -0.431578 -0.026249 -0.741431 0.585356 0.328083
0.061579 -0.431578 -0.024320 -0.852578 0.507470 0.124840
0.071052 -0.431578 -0.024914 -0.918250 0.395995 0.002272
0.080526 -0.431578 -0.024119 -0.900501 0.372909 0.223692
0.086618 -0.431578 -0.022105 -0.886909 0.210100 0.411401
0.146842 -0.431578 -0.027146 0.862371 -0.321545 -0.391055
0.156316 -0.451889 -0.022105 0.911946 0.408944 0.033455
0.156316 -0.431578 -0.024035 0.927727 0.206938 0.310645
0.175263 -0.431578 -0.027073 0.946832 -0.143506 -0.287950
0.184737 -0.444028 -0.022105 0.903181 0.368901 -0.219492
0.184737 -0.431578 -0.024330 0.923622 0.182948 -0.336828
0.193508 -0.431578 -0.022105 0.925232 0.247786 -0.287311
0.194210 -0.435552 -0.022105 0.959753 0.266365 -0.089012
0.196457 -0.431578 -0.022105 0.980496 0.081356 0.178911
0.203684 -0.431578 -0.025248 0.866134 0.123729 0.484254
0.213158 -0.442322 -0.022105 0.964578 0.262591 0.025200
0.213158 -0.431578 -0.024693 0.713327 0.592327 0.374584
0.251052 -0.431578 -0.023362 -0.653959 -0.570749 -0.496572
0.246905 -0.431578 -0.022105 -0.524836 -0.772285 -0.357942
0.251052 -0.442671 -0.022105 -0.657003 -0.442332 -0.610483
0.260526 -0.431578 -0.027521 -0.997396 -0.062571 -0.035849
0.270000 -0.451699 -0.022105 -0.490357 -0.795408 0.356197
0.270000 -0.431578 -0.026773 -0.991413 -0.066592 0.112540
0.279473 -0.442865 -0.022105 -0.646964 -0.748628 0.144891
0.279473 -0.431578 -0.026048 -0.958656 0.159310 0.235796
0.288947 -0.448659 -0.022105 -0.862517 -0.505994 -0.005924
0.288947 -0.431578 -0.023926 -0.848486 0.196342 0.491448
0.291526 -0.431578 -0.022105 -0.617793 0.150486 0.771807
0.383684 -0.431578 -0.026684 -0.635257 0.438033 -0.636063
0.380315 -0.431578 -0.022105 -0.501688 0.179396 -0.846242
0.391031 -0.431578 -0.022105 -0.690091 0.238444 0.683315
0.393158 -0.437040 -0.022105 -0.601769 0.368703 0.708472
0.412105 -0.447177 -0.022105 -0.655401 0.645441 -0.392245
-0.412105 -0.410526 -0.022793 -0.638706 0.692011 -0.336415
-0.413690 -0.410526 -0.022105 -0.305088 0.710745 -0.633848
-0.412105 -0.412777 -0.022105 -0.645547 0.208664 -0.734662
-0.402632 -0.410526 -0.025240 -0.762072 0.622282 -0.178918
-0.397615 -0.410526 -0.022105 -0.554402 0.681703 0.477409
-0.393158 -0.414431 -0.022105 -0.757791 0.463432 0.459329
-0.374211 -0.429284 -0.022105 -0.621418 0.518431 -0.587425
-0.364737 -0.410526 -0.024530 -0.477468 0.760508 -0.440059
-0.365726 -0.410526 -0.022105 -0.564580 0.582369 -0.584889
-0.361407 -0.410526 -0.022105 -0.594586 0.765996 0.244372
-0.355263 -0.417329 -0.022105 -0.636295 0.677906 0.368200
-0.317368 -0.410526 -0.022902 -0.625391 0.197554 -0.754890
-0.318596 -0.410526 -0.022105 -0.733598 0.242633 -0.634794
-0.137522 -0.410526 -0.022105 0.840881 -0.152320 0.519344
-0.118421 -0.422270 -0.022105 -0.870694 0.287364 -0.399142
-0.108947 -0.410526 -0.023027 -0.906815 0.418669 -0.049015
-0.113872 -0.410526 -0.022105 -0.896757 0.240468 -0.371485
-0.102504 -0.410526 -0.022105 -0.915975 0.329256 0.229304
-0.099474 -0.413316 -0.022105 -0.720437 0.685780 -0.103322
-0.090000 -0.410526 -0.023316 -0.876126 0.350493 -0.330995
-0.096084 -0.410526 -0.022105 -0.882093 0.426193 -0.200679
-0.080526 -0.410526 -0.025198 -0.888855 0.444148 0.112557
-0.071053 -0.410526 -0.023127 -0.939138 0.309117 0.149889
-0.061579 -0.410526 -0.023596 -0.925549 0.375529 0.048336
-0.052499 -0.410526 -0.022105 -0.949166 0.219167 0.225941
-0.052105 -0.410808 -0.022105 -0.872881 0.460578 0.161082
-0.042632 -0.416453 -0.022105 -0.745809 0.665823 0.021159
-0.033158 -0.415428 -0.022105 -0.566255 0.790069 -0.234832
-0.023684 -0.410526 -0.027785 -0.715990 0.683830 -0.140483
-0.027255 -0.410526 -0.022105 -0.854649 0.356336 -0.377623
-0.014211 -0.410526 -0.022434 -0.832835 0.543257 0.106104
-0.004737 -0.410526 -0.022291 -0.914398 0.398466 -0.071414
0.004737 -0.410526 -0.023513 -0.990062 0.012048 -0.140112
0.014210 -0.410526 -0.023950 -0.984053 0.170081 0.052069
0.023376 -0.410526 -0.022105 -0.896678 0.384927 0.218633
0.023684 -0.410740 -0.022105 -0.765954 0.641925 0.035320
0.033158 -0.410526 -0.022936 -0.953571 0.289625 -0.082586
0.024190 -0.410526 -0.022105 -0.990383 0.040438 -0.132309
0.042631 -0.410526 -0.023143 -0.934394 0.353710 0.042386
0.049449 -0.410526 -0.022105 -0.913923 0.365998 0.175469
0.052105 -0.413261 -0.022105 -0.868937 0.460799 0.180592
0.061579 -0.422137 -0.022105 -0.907251 0.419030 -0.036178
0.071052 -0.415237 -0.022105 -0.925204 0.376987 -0.043344
0.080526 -0.416272 -0.022105 -0.942562 0.308645 0.127732
0.127895 -0.410526 -0.025452 0.915327 0.253185 -0.313168
0.137368 -0.410526 -0.024207 0.998846 0.044531 -0.017966
0.146842 -0.410526 -0.024525 0.956460 0.286595 -0.055206
0.156316 -0.410526 -0.023691 0.975130 0.164985 0.147989
0.165789 -0.410526 -0.026966 0.995411 0.063150 0.071901
0.175263 -0.410526 -0.024230 0.978781 0.139280 -0.150297
0.184737 -0.410526 -0.025136 0.940205 -0.340247 0.015686
0.194210 -0.425700 -0.022105 0.962820 0.127358 -0.238238
0.194210 -0.410526 -0.022955 0.928826 0.264549 -0.259414
0.203684 -0.410526 -0.025235 0.865976 0.249924 0.433154
0.213158 -0.410526 -0.025596 0.813835 0.252517 0.523362
0.251052 -0.410526 -0.027287 -0.832883 0.493555 -0.250418
0.242722 -0.410526 -0.022105 -0.404781 -0.050029 -0.913044
0.260526 -0.410526 -0.028003 -0.942661 0.305176 0.135124
0.270000 -0.410526 -0.024527 -0.843633 0.352475 0.405023
0.279473 -0.410526 -0.022861 -0.783069 0.554956 0.280761
0.282090 -0.410526 -0.022105 -0.676291 0.642300 0.360669
0.288947 -0.421604 -0.022105 -0.749916 0.376976 0.543613
0.383684 -0.414955 -0.022105 -0.524523 0.300679 -0.796535
0.393158 -0.412127 -0.022105 -0.712500 0.616454 0.335153
0.393158 -0.410526 -0.022237 -0.619460 0.684401 0.384532
0.392380 -0.410526 -0.022105 -0.679821 0.708462 -0.189535
0.393327 -0.410526 -0.022105 -0.458888 0.354026 0.814915
-0.412105 -0.408858 -0.022105 -0.449786 0.859185 -0.243915
-0.402632 -0.402481 -0.022105 -0.607018 0.793199 0.048629
-0.364737 -0.408209 -0.022105 -0.623660 0.760349 -0.181431
-0.317368 -0.407052 -0.022105 -0.680569 0.541276 -0.493807
-0.307895 -0.394107 -0.022105 -0.535371 0.832109 0.144816
-0.298421 -0.403696 -0.022105 -0.248937 0.930826 0.267570
-0.288947 -0.409604 -0.022105 -0.303470 0.949643 0.077993
-0.279474 -0.389473 -0.026959 0.513089 0.639214 -0.572840
-0.279474 -0.399992 -0.022105 -0.174170 0.878527 -0.444809
-0.273564 -0.389473 -0.022105 -0.094735 0.403996 -0.909842
-0.137369 -0.404736 -0.022105 -0.104573 -0.070489 0.992016
-0.137188 -0.389473 -0.022105 -0.152168 0.112073 0.981980
-0.108947 -0.390442 -0.022105 -0.921237 0.346561 0.176686
-0.090000 -0.389473 -0.023328 -0.713512 0.494858 -0.496000
-0.091674 -0.389473 -0.022105 -0.733759 0.482189 -0.478635
-0.080526 -0.389473 -0.024998 -0.802417 0.572049 0.169961
-0.074606 -0.389473 -0.022105 -0.764546 0.379122 0.521283
-0.071053 -0.400920 -0.022105 -0.947181 0.314382 0.063344
-0.061579 -0.396567 -0.022105 -0.975810 0.212968 -0.049398
-0.054932 -0.389473 -0.022105 -0.872124 0.460454 -0.165472
-0.052105 -0.389473 -0.022781 -0.854728 0.437636 -0.279131
-0.052105 -0.407010 -0.022105 -0.985817 -0.044624 0.161783
-0.042632 -0.401377 -0.022105 -0.968526 -0.188462 0.162604
-0.042632 -0.389473 -0.024492 -0.715630 0.625101 0.311646
-0.040241 -0.389473 -0.022105 -0.753489 0.216481 0.620798
-0.023684 -0.389473 -0.025845 -0.731278 0.480572 -0.484029
-0.027398 -0.389473 -0.022105 -0.667342 0.277724 -0.691031
-0.014211 -0.389473 -0.024791 -0.906579 0.411919 0.091855
-0.004737 -0.389473 -0.024400 -0.897342 -0.028318 -0.440426
0.023684 -0.410129 -0.022105 -0.922064 -0.372295 0.105806
0.023684 -0.389473 -0.027415 -0.778291 0.124866 0.615363
0.033158 -0.389473 -0.025287 -0.731143 0.662354 0.163455
0.042631 -0.389473 -0.025437 -0.820307 0.546924 0.167243
0.048640 -0.389473 -0.022105 -0.884887 0.217758 0.411773
0.080526 -0.389473 -0.023275 -0.842287 0.473717 0.257186
0.072159 -0.389473 -0.022105 -0.951503 0.281011 -0.125198
0.080526 -0.398844 -0.022105 -0.989403 -0.133374 0.057390
0.082908 -0.389473 -0.022105 -0.794733 0.185033 0.578068
0.118421 -0.389473 -0.026897 0.926701 -0.255777 0.275325
0.137368 -0.389473 -0.028136 0.941516 0.336914 0.006104
0.156316 -0.389473 -0.028121 0.989484 0.144160 -0.011838
0.175263 -0.389473 -0.026390 0.896604 -0.191979 -0.399056
0.184737 -0.389473 -0.022645 0.944073 0.036761 -0.327680
0.194210 -0.389473 -0.026542 0.770482 -0.384197 0.508675
0.232105 -0.406982 -0.022105 0.004934 0.121157 0.992621
0.232105 -0.389473 -0.022660 -0.741510 0.628917 0.233724
0.230876 -0.389473 -0.022105 -0.092309 0.592265 -0.800438
0.232915 -0.389473 -0.022105 -0.755318 0.331214 0.565502
0.251052 -0.394759 -0.022105 -0.652378 0.710504 -0.263793
0.260526 -0.389473 -0.022401 -0.750731 0.660577 0.006444
0.259340 -0.389473 -0.022105 -0.800394 0.493862 -0.339808
0.261386 -0.389473 -0.022105 -0.783804 0.473197 0.402164
0.270000 -0.400397 -0.022105 -0.668290 0.682136 0.296780
0.279473 -0.407738 -0.022105 -0.678026 0.680872 0.276938
0.393158 -0.410060 -0.022105 -0.599203 0.676158 0.428679
-0.270094 -0.368420 -0.022105 -0.494445 0.704272 -0.509436
-0.137369 -0.368420 -0.027630 -0.024900 -0.485334 0.873974
-0.136146 -0.368420 -0.022105 0.242709 0.174721 0.954235
-0.090000 -0.386804 -0.022105 -0.714620 0.595851 -0.366441
-0.080526 -0.377968 -0.022105 -0.814513 0.526382 0.243906
-0.052105 -0.388077 -0.022105 -0.760982 0.633850 -0.138348
-0.042632 -0.382427 -0.022105 -0.878505 0.415645 0.235517
-0.023684 -0.380758 -0.022105 -0.775936 0.613033 -0.148708
-0.014211 -0.380761 -0.022105 -0.801682 0.590318 0.093969
-0.004737 -0.385563 -0.022105 -0.700317 0.660010 -0.271925
0.004737 -0.376458 -0.022105 -0.688082 0.688455 -0.229288
0.014210 -0.368517 -0.022105 -0.694969 0.719039 -0.001094
0.023684 -0.380829 -0.022105 -0.695175 0.680706 0.231022
0.033158 -0.383302 -0.022105 -0.735037 0.677259 0.032258
0.042631 -0.383106 -0.022105 -0.797312 0.586465 0.142661
0.080526 -0.385365 -0.022105 -0.856543 0.499737 0.128833
0.115799 -0.368420 -0.022105 0.534952 -0.306135 -0.787469
0.118421 -0.373680 -0.022105 0.706115 -0.698367 0.116985
0.127895 -0.368420 -0.022634 0.733203 -0.679865 0.014043
0.124610 -0.368420 -0.022105 0.859879 -0.472359 0.193612
0.133131 -0.368420 -0.022105 0.814958 -0.575613 -0.067172
0.137368 -0.369052 -0.022105 0.737830 -0.671119 -0.072147
0.146842 -0.371409 -0.022105 0.779618 -0.512157 0.360403
0.156316 -0.368420 -0.025885 0.847224 -0.454705 0.274692
0.148426 -0.368420 -0.022105 0.797332 -0.083989 0.597668
0.165789 -0.368420 -0.025141 0.937355 -0.274493 -0.214522
0.174939 -0.368420 -0.022105 0.845177 -0.178123 -0.503932
0.175263 -0.369274 -0.022105 0.914644 -0.259619 -0.309878
0.184737 -0.381959 -0.022105 0.944099 -0.329132 -0.018706
0.194210 -0.370777 -0.022105 0.966006 -0.237038 0.103172
0.203684 -0.368420 -0.022773 0.882883 -0.469583 -0.003069
0.200441 -0.368420 -0.022105 0.925844 -0.343482 0.157588
0.205671 -0.368420 -0.022105 0.845932 -0.224761 -0.483613
0.213158 -0.384703 -0.022105 0.734712 -0.653160 0.183248
0.222631 -0.370820 -0.022105 0.423108 -0.318095 0.848407
0.222631 -0.368420 -0.025996 -0.052906 0.436189 0.898298
0.232105 -0.386579 -0.022105 -0.624361 0.630381 0.461295
0.223777 -0.368420 -0.022105 -0.107673 0.610317 0.784806
0.251052 -0.368420 -0.022520 -0.827163 0.514384 -0.226298
0.249998 -0.368420 -0.022105 -0.590379 0.531517 -0.607406
0.251052 -0.372844 -0.022105 -0.922754 0.082270 -0.376505
0.260526 -0.381574 -0.022105 -0.962314 0.076638 0.260918
0.256049 -0.368420 -0.022105 -0.782214 0.603282 0.155538
-0.270000 -0.368333 -0.022105 -0.234533 0.869969 -0.433760
-0.260526 -0.349338 -0.022105 -0.218235 0.715550 -0.663598
-0.259385 -0.347368 -0.022105 -0.163187 0.639518 -0.751256
-0.136404 -0.347368 -0.022105 0.469671 -0.213023 0.856756
0.099474 -0.347368 -0.023205 0.586251 0.014333 -0.810003
0.101796 -0.347368 -0.022105 0.682168 -0.593421 -0.427198
0.108947 -0.353119 -0.022105 0.853508 -0.443863 -0.272964
0.127895 -0.365097 -0.022105 0.954481 -0.298263 0.002095
0.146842 -0.347368 -0.023286 0.954165 -0.164165 0.250238
0.146842 -0.359197 -0.022105 0.964520 0.092921 0.247117
0.141429 -0.347368 -0.022105 0.942212 -0.041830 0.332395
0.156316 -0.347368 -0.024695 0.914628 -0.400170 0.057613
0.165789 -0.347368 -0.024101 0.988721 -0.073922 -0.130255
0.175263 -0.364812 -0.022105 0.908744 0.059875 -0.413036
0.175263 -0.347368 -0.022802 0.922888 -0.152771 -0.353467
0.177127 -0.347368 -0.022105 0.796309 -0.152665 -0.585308
0.203684 -0.347368 -0.023002 0.852331 -0.393193 0.344863
0.202564 -0.347368 -0.022105 0.756044 -0.225670 0.614386
0.207319 -0.347368 -0.022105 0.939204 0.036422 -0.341422
0.222631 -0.365492 -0.022105 0.472679 0.670498 0.571846
0.216467 -0.347368 -0.022105 0.281931 0.590283 0.756360
0.251052 -0.366772 -0.022105 -0.636125 0.729529 -0.251262
-0.251053 -0.326315 -0.023499 0.089157 0.096985 -0.991284
-0.251806 -0.326315 -0.022105 -0.174256 -0.012534 -0.984621
-0.127895 -0.326315 -0.027325 0.424020 -0.589475 0.687551
-0.131996 -0.326315 -0.022105 0.454135 -0.413612 0.789105
0.099474 -0.326315 -0.026992 0.247495 -0.372990 -0.894218
0.102848 -0.326315 -0.022105 0.573796 -0.352429 -0.739291
0.146842 -0.326315 -0.022847 0.876738 -0.479963 0.031083
0.144104 -0.326315 -0.022105 0.773144 -0.473113 0.422389
0.150255 -0.326315 -0.022105 0.746837 -0.598458 -0.289970
0.156316 -0.333682 -0.022105 0.955559 -0.245825 0.162717
0.159946 -0.326315 -0.022105 0.673658 -0.586278 0.449960
0.165789 -0.326315 -0.023857 0.831656 -0.511810 0.215404
0.175263 -0.326315 -0.022146 0.823201 -0.467823 -0.321687
0.175419 -0.326315 -0.022105 0.752339 -0.464212 -0.467434
0.194210 -0.326315 -0.022620 0.758590 -0.179797 0.626271
0.194210 -0.327235 -0.022105 0.752749 0.318508 0.576126
0.193856 -0.326315 -0.022105 0.433883 -0.023969 0.900650
0.203684 -0.339476 -0.022105 0.951851 0.081590 0.295503
0.195818 -0.326315 -0.022105 0.723508 -0.515859 -0.458723
0.207144 -0.326315 -0.022105 0.324922 0.398775 0.857557
0.213158 -0.339862 -0.022105 0.650188 0.612718 0.449258
-0.254229 -0.305262 -0.022105 -0.034425 0.323245 -0.945689
-0.127895 -0.316284 -0.022105 0.468580 -0.836550 0.283931
-0.118421 -0.315565 -0.022105 0.307791 -0.921945 0.235121
-0.108947 -0.305262 -0.023756 0.242878 -0.804422 0.542139
-0.110311 -0.305262 -0.022105 0.271942 -0.749039 0.604142
0.094235 -0.305262 -0.022105 -0.240680 -0.437714 -0.866302
0.099474 -0.319611 -0.022105 0.429880 -0.709616 -0.558255
0.146842 -0.323475 -0.022105 0.670431 -0.739699 0.058029
0.165789 -0.320390 -0.022105 0.525214 -0.850025 0.040084
0.175263 -0.326216 -0.022105 0.593234 -0.768014 -0.241306
0.194210 -0.324623 -0.022105 0.455056 -0.643542 0.615449
0.202810 -0.305262 -0.022105 0.423744 0.311361 0.850585
0.203684 -0.305262 -0.022827 0.568406 0.351120 0.744063
0.203684 -0.309305 -0.022105 0.469852 -0.187477 0.862608
-0.251053 -0.295305 -0.022105 -0.089981 0.726046 -0.681734
-0.241579 -0.284210 -0.027061 0.266394 0.404716 -0.874780
-0.241579 -0.290568 -0.022105 -0.041338 0.934742 -0.352916
-0.237967 -0.284210 -0.022105 0.070517 0.039193 -0.996740
-0.108947 -0.302004 -0.022105 0.249251 -0.819695 0.515726
-0.099858 -0.284210 -0.022105 -0.054800 -0.719064 0.692780
0.090000 -0.284210 -0.024657 -0.370574 -0.674130 -0.638924
0.082289 -0.284210 -0.022105 -0.693858 -0.634924 -0.339754
0.090000 -0.290630 -0.022105 -0.175948 -0.760565 -0.624966
0.194210 -0.291374 -0.022105 -0.020530 0.642032 0.766403
0.192547 -0.284210 -0.022105 0.006459 0.334603 0.942337
-0.241232 -0.263157 -0.022105 -0.174067 0.044095 -0.983746
-0.099474 -0.283237 -0.022105 -0.320511 -0.714096 0.622366
-0.092895 -0.263157 -0.022105 -0.159514 -0.581341 0.797871
0.080526 -0.263157 -0.023066 -0.475652 -0.084129 -0.875601
0.079787 -0.263157 -0.022105 -0.161379 0.184612 -0.969472
0.080526 -0.279374 -0.022105 -0.266607 -0.168978 -0.948877
0.192180 -0.263157 -0.022105 -0.074833 0.069726 0.994755
-0.232105 -0.246776 -0.022105 -0.308626 0.455891 -0.834813
-0.231065 -0.242104 -0.022105 -0.209221 0.235349 -0.949124
-0.090000 -0.254570 -0.022105 -0.228845 -0.534683 0.813477
-0.087046 -0.242104 -0.022105 -0.165795 -0.488587 0.856618
0.080526 -0.258728 -0.022105 -0.361312 0.382195 -0.850518
0.083934 -0.242104 -0.022105 -0.436761 -0.256741 -0.862162
0.188779 -0.242104 -0.022105 -0.260869 0.044718 0.964338
-0.227337 -0.221052 -0.022105 -0.393651 -0.187819 -0.899868
-0.080526 -0.222617 -0.022105 -0.290662 -0.643003 0.708564
-0.080526 -0.221052 -0.022737 -0.379608 -0.660786 0.647503
-0.079571 -0.221052 -0.022105 -0.266616 -0.808766 0.524227
0.080526 -0.221052 -0.024516 -0.327302 -0.256064 -0.909563
0.078797 -0.221052 -0.022105 -0.164767 -0.143514 -0.975836
0.080526 -0.228364 -0.022105 -0.232734 -0.457216 -0.858364
0.193916 -0.221052 -0.022105 -0.206859 -0.267350 0.941134
-0.232105 -0.199999 -0.024577 -0.604542 0.172712 -0.777625
-0.235277 -0.199999 -0.022105 -0.552066 0.119380 -0.825210
-0.232105 -0.207245 -0.022105 -0.580423 -0.442385 -0.683671
-0.071053 -0.209179 -0.022105 -0.370601 -0.773495 0.514160
-0.071053 -0.199999 -0.024924 -0.561314 -0.693133 0.452209
-0.065434 -0.199999 -0.022105 -0.308400 -0.830722 0.463455
0.080526 -0.199999 -0.022401 -0.069043 -0.216207 -0.973903
0.080331 -0.199999 -0.022105 -0.181163 -0.376162 -0.908670
0.194210 -0.213549 -0.022105 -0.236273 -0.011250 0.971622
0.194210 -0.199999 -0.024172 -0.204925 0.281165 0.937524
0.194657 -0.199999 -0.022105 -0.117007 0.225205 0.967260
-0.232105 -0.193205 -0.022105 -0.525135 0.656388 -0.541653
-0.222632 -0.178963 -0.022105 -0.459051 0.757448 -0.464268
-0.222620 -0.178946 -0.022105 -0.704176 0.359009 -0.612575
-0.061579 -0.195946 -0.022105 -0.394275 -0.765352 0.508708
-0.061579 -0.178946 -0.026898 -0.629327 -0.435889 0.643388
-0.056225 -0.178946 -0.022105 -0.194302 -0.309297 0.930904
0.074054 -0.178946 -0.022105 -0.046149 -0.458741 -0.887371
0.194210 -0.196547 -0.022105 -0.261314 0.226274 0.938357
0.192368 -0.178946 -0.022105 -0.362455 0.014480 0.931889
-0.222035 -0.157894 -0.022105 -0.809757 -0.549592 -0.205531
-0.054723 -0.157894 -0.022105 -0.094441 -0.434651 0.895634
0.066082 -0.157894 -0.022105 -0.047936 -0.787076 -0.614990
0.071052 -0.167521 -0.022105 0.147059 -0.575898 -0.804186
0.190923 -0.157894 -0.022105 -0.338391 -0.218030 0.915398
-0.232105 -0.136841 -0.023723 -0.648497 -0.430789 -0.627592
-0.234219 -0.136841 -0.022105 -0.494094 -0.386279 -0.778884
-0.232105 -0.143197 -0.022105 -0.483788 -0.597642 -0.639354
-0.222632 -0.157684 -0.022105 -0.569533 -0.746088 -0.344941
-0.052105 -0.151275 -0.022105 -0.163190 -0.753611 0.636741
-0.042632 -0.137256 -0.022105 -0.259254 -0.928017 0.267530
-0.042632 -0.136841 -0.022597 -0.455297 -0.881722 0.123580
-0.033158 -0.140699 -0.022105 -0.339901 -0.921519 0.187804
-0.033158 -0.136841 -0.024015 -0.719698 -0.532066 0.446027
-0.030184 -0.136841 -0.022105 -0.409008 -0.511573 0.755649
0.057737 -0.136841 -0.022105 -0.049792 -0.054557 -0.997268
0.061579 -0.151649 -0.022105 0.156686 -0.714866 -0.681481
0.194210 -0.144242 -0.022105 -0.283918 -0.422621 0.860687
0.194210 -0.136841 -0.024966 -0.344317 -0.425679 0.836805
0.195602 -0.136841 -0.022105 -0.259965 -0.390132 0.883298
-0.232105 -0.115788 -0.026639 -0.812333 -0.276009 -0.513745
-0.239518 -0.115788 -0.022105 -0.644754 -0.247634 -0.723166
-0.027608 -0.115788 -0.022105 -0.181426 -0.580397 0.793866
0.061352 -0.115788 -0.022105 0.120374 -0.761376 -0.637037
0.201008 -0.115788 -0.022105 -0.347574 -0.339263 0.874124
-0.241208 -0.094736 -0.022105 -0.383428 -0.217470 -0.897602
-0.023684 -0.102906 -0.022105 -0.298449 -0.534695 0.790588
-0.021594 -0.094736 -0.022105 -0.187379 -0.307927 0.932776
0.043777 -0.094736 -0.022105 0.018060 -0.780306 -0.625138
0.052105 -0.102230 -0.022105 0.098452 -0.838260 -0.536309
0.203684 -0.098145 -0.022105 -0.302318 -0.491347 0.816812
0.207205 -0.094736 -0.022105 -0.012875 -0.932638 0.360583
-0.241579 -0.073683 -0.023708 -0.552422 0.057756 -0.831561
-0.243741 -0.073683 -0.022105 -0.734818 0.195518 -0.649473
-0.241579 -0.090575 -0.022105 -0.455753 -0.232657 -0.859162
-0.015527 -0.073683 -0.022105 0.183985 -0.885199 0.427285
-0.004737 -0.073683 -0.024129 -0.349878 -0.893700 0.280865
-0.011161 -0.073683 -0.022105 0.280551 -0.941928 -0.184560
-0.004737 -0.080749 -0.022105 0.189310 -0.954894 0.228777
-0.002536 -0.073683 -0.022105 0.522846 -0.570186 0.633656
0.014210 -0.073683 -0.027149 0.556251 -0.830586 -0.026677
0.030566 -0.073683 -0.022105 0.306122 -0.506675 -0.805959
0.033158 -0.077936 -0.022105 0.243285 -0.748216 -0.617240
0.042631 -0.088868 -0.022105 -0.013030 -0.555930 -0.831127
0.213158 -0.079550 -0.022105 -0.046809 -0.234595 0.970965
0.213539 -0.073683 -0.022105 -0.034793 0.004217 0.999386
-0.241579 -0.066149 -0.022105 -0.570707 0.357476 -0.739259
-0.232105 -0.052630 -0.027649 -0.713597 0.266372 -0.647939
-0.239175 -0.052630 -0.022105 -0.577579 0.099227 -0.810282
-0.014211 -0.072845 -0.022105 0.053555 -0.993265 0.102742
0.004737 -0.064987 -0.022105 0.381353 -0.920920 0.080479
0.014210 -0.066275 -0.022105 0.451577 -0.857295 0.247231
0.023684 -0.052630 -0.024044 0.238174 -0.928630 0.284464
0.021633 -0.052630 -0.022105 0.311748 -0.740287 0.595641
0.026860 -0.052630 -0.022105 0.498156 -0.570738 -0.652763
0.216722 -0.052630 -0.022105 -0.300368 0.021208 0.953588
-0.232105 -0.031578 -0.026347 -0.903536 0.094059 -0.418062
-0.240038 -0.031578 -0.022105 -0.541449 -0.090875 -0.835807
0.023684 -0.049833 -0.022105 0.396640 -0.916507 -0.051889
0.213158 -0.032089 -0.022105 0.055694 -0.131588 0.989739
0.213028 -0.031578 -0.022105 -0.226421 0.085234 0.970293
-0.232105 -0.010525 -0.026457 -0.904974 -0.009419 -0.425363
-0.241009 -0.010525 -0.022105 -0.727932 -0.072986 -0.681753
-0.222632 -0.010525 -0.025514 -0.994363 -0.099347 -0.037045
0.203684 -0.010525 -0.027676 -0.501668 0.082986 0.861070
0.210202 -0.010525 -0.022105 -0.268448 0.367458 0.890455
-0.241579 0.010528 -0.022718 -0.738695 -0.070977 -0.670293
-0.242535 0.010528 -0.022105 -0.645734 0.030903 -0.762937
-0.241579 -0.004101 -0.022105 -0.672269 -0.123830 -0.729877
-0.232105 0.010528 -0.027947 -0.896725 0.049327 -0.439830
0.203684 0.010528 -0.027072 -0.224818 0.274570 0.934916
0.207406 0.010528 -0.022105 -0.302723 0.324835 0.896014
-0.241579 0.031580 -0.022156 -0.872555 0.194195 -0.448260
-0.241711 0.031580 -0.022105 -0.564206 0.284417 -0.775099
-0.232105 0.031580 -0.024664 -0.914543 0.215558 -0.342266
-0.222632 0.031580 -0.028281 -0.730253 0.594508 -0.336586
-0.213158 0.031580 -0.026711 -0.911919 0.056336 -0.406485
0.203684 0.025001 -0.022105 -0.211391 0.493107 0.843895
0.202781 0.031580 -0.022105 -0.136376 0.445965 0.884600
-0.241579 0.031978 -0.022105 -0.668632 0.509348 -0.541753
-0.232105 0.049368 -0.022105 -0.753269 0.628718 -0.193131
-0.222632 0.050121 -0.022105 -0.734086 0.510102 -0.448233
-0.213158 0.052633 -0.026750 -0.638378 0.688669 -0.343815
-0.221600 0.052633 -0.022105 -0.656558 0.268323 -0.704936
-0.203684 0.052633 -0.023305 -0.714727 0.608464 0.344874
-0.194211 0.052633 -0.026172 -0.493452 0.846364 -0.200432
0.194210 0.052633 -0.027562 -0.696613 -0.087751 0.712061
0.203684 0.047124 -0.022105 -0.656853 0.101186 0.747198
0.203684 0.052633 -0.022381 -0.788617 0.300573 0.536413
0.204405 0.052633 -0.022105 -0.667284 0.229907 0.708432
-0.213158 0.069329 -0.022105 -0.830992 0.528461 0.173729
-0.203684 0.054817 -0.022105 -0.575594 0.817447 0.021750
-0.194211 0.064991 -0.022105 -0.690784 0.562752 -0.454013
-0.184737 0.073686 -0.025428 -0.593294 0.099170 -0.798854
-0.190037 0.073686 -0.022105 -0.637540 -0.213264 -0.740312
0.203684 0.054083 -0.022105 -0.532058 0.549932 0.643808
0.199272 0.073686 -0.022105 -0.300311 0.547963 0.780737
-0.213158 0.094738 -0.024985 -0.942108 0.333120 0.038251
-0.222256 0.094738 -0.022105 -0.862962 0.028726 -0.504451
-0.213158 0.078108 -0.022105 -0.756577 -0.653680 0.017126
-0.204772 0.094738 -0.022105 -0.674026 -0.403062 0.619056
-0.193505 0.094738 -0.022105 -0.644323 0.040848 -0.763662
0.184737 0.094738 -0.026227 -0.591282 0.349379 0.726857
0.188770 0.094738 -0.022105 -0.459583 0.393811 0.796050
0.194210 0.083363 -0.022105 -0.372714 0.692916 0.617213
-0.213158 0.109202 -0.022105 -0.890339 0.406208 -0.205650
-0.205483 0.115791 -0.022105 -0.892756 0.294433 -0.341023
-0.203684 0.115791 -0.022536 -0.936443 0.303795 0.175451
-0.203684 0.106284 -0.022105 -0.898994 0.374111 0.227708
-0.202584 0.115791 -0.022105 -0.836226 0.164668 0.523079
-0.184737 0.115791 -0.022570 -0.575325 -0.194543 -0.794452
-0.185254 0.115791 -0.022105 -0.763199 -0.000456 -0.646163
0.191101 0.115791 -0.022105 -0.652176 -0.005353 0.758049
-0.203684 0.136844 -0.023110 -0.801407 0.394278 -0.449769
-0.205495 0.136844 -0.022105 -0.765476 0.445893 -0.463925
-0.194211 0.133626 -0.022105 -0.950709 -0.287259 -0.116767
-0.194211 0.136844 -0.024829 -0.882261 0.461215 -0.094318
-0.184737 0.136844 -0.024676 -0.727318 0.685138 0.039932
-0.175263 0.136844 -0.023117 -0.880233 0.474419 0.010790
0.184737 0.136844 -0.026204 -0.653831 0.016695 0.756457
0.190883 0.136844 -0.022105 -0.673290 0.155540 0.722833
-0.203684 0.139169 -0.022105 -0.610584 0.770051 -0.184957
-0.194211 0.138688 -0.022105 -0.671496 0.728462 -0.135780
-0.184737 0.142855 -0.022105 -0.593973 0.803901 0.030649
-0.175263 0.138471 -0.022105 -0.635839 0.752332 -0.172353
-0.165790 0.157896 -0.025250 -0.591473 -0.115958 -0.797943
-0.168195 0.157896 -0.022105 -0.484519 -0.065739 -0.872307
-0.156316 0.157896 -0.027586 -0.546277 -0.005020 -0.837590
0.184737 0.157896 -0.025448 -0.269039 0.324990 0.906642
0.186330 0.157896 -0.022105 -0.288145 0.393484 0.873008
-0.194211 0.178949 -0.022507 -0.942563 -0.324124 0.080737
-0.194927 0.178949 -0.022105 -0.600627 -0.189959 -0.776635
-0.194211 0.177691 -0.022105 -0.850192 -0.520869 0.076609
-0.193089 0.178949 -0.022105 -0.721913 -0.521992 0.454274
-0.175263 0.178949 -0.022206 -0.754183 -0.327284 -0.569291
-0.175697 0.178949 -0.022105 -0.884474 -0.265901 -0.383410
-0.175263 0.178414 -0.022105 -0.631707 -0.565417 -0.530330
0.156316 0.168337 -0.022105 -0.090872 0.963672 0.251154
0.148581 0.178949 -0.022105 -0.024962 0.681670 0.731234
0.164808 0.178949 -0.022105 -0.064127 0.669931 -0.739649
0.184737 0.165521 -0.022105 -0.153060 0.485516 0.860724
0.178484 0.178949 -0.022105 -0.212243 0.531633 0.819951
-0.194211 0.200001 -0.024080 -0.876495 0.119632 -0.466309
-0.196902 0.200001 -0.022105 -0.572550 0.166498 -0.802786
-0.184737 0.192870 -0.022105 -0.935792 -0.331014 0.121339
-0.184737 0.200001 -0.023149 -0.987052 0.110010 0.116730
-0.175263 0.200001 -0.022326 -0.848097 0.026979 -0.529153
-0.156316 0.200001 -0.026714 -0.989461 0.068262 0.127697
0.156316 0.200001 -0.024841 0.885530 0.399608 0.236959
0.150488 0.200001 -0.022105 0.136049 0.044927 0.989683
0.161575 0.200001 -0.022105 0.019667 -0.081392 -0.996488
0.183524 0.200001 -0.022105 -0.603058 0.375698 0.703684
-0.194211 0.212506 -0.022105 -0.772312 0.611381 -0.172476
-0.184737 0.206687 -0.022105 -0.836900 0.542159 0.075240
-0.175263 0.202736 -0.022105 -0.814978 0.261501 -0.517135
-0.165790 0.221054 -0.025864 -0.935827 0.081404 -0.342930
-0.172817 0.221054 -0.022105 -0.535787 0.324643 -0.779448
-0.156316 0.221054 -0.026797 -0.996763 0.062824 -0.050160
-0.146842 0.221054 -0.026868 -0.981598 0.190633 -0.011187
-0.137369 0.221054 -0.026960 -0.669901 0.613299 -0.418447
0.146842 0.221054 -0.026816 0.635578 0.284354 0.717763
0.146842 0.208874 -0.022105 -0.246585 0.641686 0.726247
0.141914 0.221054 -0.022105 -0.081484 0.137818 0.987100
0.165789 0.211853 -0.022105 -0.174172 0.933609 -0.313112
0.175263 0.205268 -0.022105 -0.099798 0.972954 0.208330
-0.165790 0.242107 -0.023081 -0.667919 0.157825 -0.727307
-0.167036 0.242107 -0.022105 -0.531585 0.314187 -0.786577
-0.156316 0.242107 -0.028250 -0.904857 0.381512 0.188896
-0.146842 0.242107 -0.023985 -0.629841 0.064985 0.774000
-0.144821 0.242107 -0.022105 -0.404724 0.333830 0.851326
-0.137369 0.227797 -0.022105 -0.407277 0.656647 -0.634776
-0.134274 0.242107 -0.022105 -0.225682 0.015962 -0.974070
0.146842 0.242107 -0.023179 0.338147 -0.470500 0.815037
0.145718 0.242107 -0.022105 -0.004358 -0.516449 0.856307
0.156316 0.242107 -0.028336 0.809165 -0.390997 0.438604
-0.165790 0.251815 -0.022105 -0.488589 0.318819 -0.812179
-0.156316 0.263160 -0.024930 -0.932645 0.123423 -0.339028
-0.164632 0.263160 -0.022105 -0.308464 0.504273 -0.806573
-0.146842 0.263160 -0.026945 -0.978998 -0.180191 0.095362
-0.137369 0.260525 -0.022105 -0.990994 -0.130012 -0.032066
-0.137369 0.263160 -0.023314 -0.933623 0.300273 -0.195408
0.146842 0.244738 -0.022105 0.144841 -0.758679 0.635159
0.156316 0.257514 -0.022105 -0.197240 -0.569205 0.798187
0.159135 0.263160 -0.022105 -0.076957 0.380887 0.921413
-0.156316 0.280155 -0.022105 -0.294114 0.534915 -0.792062
-0.154807 0.284212 -0.022105 -0.387324 0.274848 -0.880022
-0.137369 0.268503 -0.022105 -0.856068 0.473580 -0.207049
-0.141275 0.284212 -0.022105 -0.130818 0.147228 0.980413
-0.135863 0.284212 -0.022105 -0.079569 -0.139665 -0.986997
0.127895 0.284212 -0.026034 0.682904 0.510873 0.522160
0.127895 0.279192 -0.022105 -0.065824 0.934490 0.349850
0.124164 0.284212 -0.022105 0.168069 0.474318 0.864161
0.137368 0.284212 -0.026384 0.734704 0.650713 0.191788
0.137368 0.279203 -0.022105 0.081811 0.992883 -0.086544
0.146842 0.283701 -0.022105 0.166703 0.856719 0.488101
0.156316 0.266543 -0.022105 0.053875 0.912757 0.404935
-0.146842 0.305265 -0.027269 -0.617153 0.700116 -0.359110
-0.152906 0.305265 -0.022105 -0.505077 0.235555 -0.830308
-0.140522 0.305265 -0.022105 -0.522099 0.052021 0.851297
-0.135809 0.305265 -0.022105 -0.359696 0.191472 -0.913213
0.127895 0.305265 -0.027268 0.398613 0.916873 -0.021246
0.124486 0.305265 -0.022105 -0.010247 0.369166 0.929307
0.134041 0.305265 -0.022105 0.191057 0.303175 -0.933586
0.137368 0.296429 -0.022105 0.253632 -0.759302 -0.599276
0.146842 0.285288 -0.022105 -0.018984 -0.435595 0.899943
0.151202 0.305265 -0.022105 0.001939 0.015651 0.999876
-0.146842 0.326318 -0.022743 -0.914874 0.321107 -0.244737
-0.148502 0.326318 -0.022105 -0.303228 0.472018 -0.827799
-0.143970 0.326318 -0.022105 -0.658966 0.302437 0.688691
-0.127895 0.326318 -0.027516 -0.547321 0.267643 -0.792974
-0.134902 0.326318 -0.022105 -0.584838 0.061867 -0.808788
0.108947 0.326318 -0.027624 0.202254 0.695584 0.689388
0.108947 0.324619 -0.022105 -0.127822 0.918697 0.373707
0.107907 0.326318 -0.022105 -0.050878 0.518817 0.853370
0.118421 0.320209 -0.022105 -0.102414 0.814537 0.570999
0.137368 0.311488 -0.022105 0.126478 0.854179 -0.504362
0.146842 0.317100 -0.022105 0.025286 0.857765 0.513420
-0.146842 0.331278 -0.022105 -0.573258 0.702146 -0.422335
-0.127895 0.347370 -0.026617 -0.621669 -0.107888 -0.775814
-0.137278 0.347370 -0.022105 -0.493636 -0.325093 -0.806621
0.106228 0.347370 -0.022105 -0.438552 0.293328 0.849488
-0.137369 0.368423 -0.025330 -0.957738 -0.194283 -0.212116
-0.145570 0.368423 -0.022105 -0.614240 -0.372911 -0.695448
-0.137369 0.347600 -0.022105 -0.324083 -0.733115 -0.597924
-0.127895 0.368423 -0.025622 -0.783797 -0.251010 -0.568029
0.099474 0.368423 -0.026870 -0.369298 0.456366 0.809536
0.103937 0.368423 -0.022105 -0.463748 0.225656 0.856748
