ply
format ascii 1.0
element vertex 838
property float x
property float y
property float z
property float nx
property float ny
property float nz
end_header
0.260526 -0.768421 0.057375 -0.327640 -0.942909 0.059787
0.256241 -0.768421 0.060000 -0.119297 -0.945211 -0.303882
0.260526 -0.775789 0.060000 -0.081868 -0.996610 -0.008165
0.263759 -0.768421 0.060000 -0.111845 -0.907330 0.405269
0.279473 -0.768421 0.059569 -0.359363 -0.931991 -0.047438
0.278531 -0.768421 0.060000 -0.294110 -0.907638 -0.299486
0.279473 -0.769777 0.060000 -0.517661 -0.818700 -0.248511
0.281843 -0.768421 0.060000 -0.374919 -0.915594 0.145340
0.317368 -0.768421 0.057659 -0.350977 -0.935075 0.049495
0.312955 -0.768421 0.060000 -0.302326 -0.910739 -0.281342
0.317368 -0.773437 0.060000 -0.622559 -0.760241 -0.185618
0.321710 -0.768421 0.060000 -0.292383 -0.872860 0.390676
0.337916 -0.768421 0.060000 -0.206710 -0.860406 -0.465802
0.393158 -0.787294 0.060000 -0.272476 -0.908719 0.316205
0.402631 -0.789335 0.060000 -0.337013 -0.928630 -0.155141
-0.389814 -0.747368 0.060000 -0.439726 0.046600 0.896922
-0.307895 -0.747368 0.059338 -0.692840 -0.698056 0.180802
-0.311563 -0.747368 0.060000 -0.549877 -0.799521 -0.241662
-0.307895 -0.748721 0.060000 -0.258322 -0.965299 0.038301
-0.306094 -0.747368 0.060000 -0.276877 -0.847328 0.453183
-0.288947 -0.747368 0.058229 -0.707832 -0.670560 -0.222091
-0.292515 -0.747368 0.060000 -0.381310 -0.726728 -0.571374
-0.288947 -0.751142 0.060000 -0.234258 -0.957590 -0.167762
-0.279474 -0.748739 0.060000 -0.342976 -0.937996 0.050305
-0.279474 -0.747368 0.058977 -0.506245 -0.862309 0.011758
-0.270000 -0.749398 0.060000 -0.392767 -0.918031 -0.054351
-0.270000 -0.747368 0.058413 -0.429648 -0.902226 -0.037301
-0.260526 -0.751651 0.060000 -0.424219 -0.872498 -0.242457
-0.260526 -0.747368 0.057995 -0.456486 -0.859065 -0.231578
-0.251053 -0.761051 0.060000 -0.514843 -0.754697 -0.406655
0.213158 -0.767587 0.060000 -0.076386 -0.977287 0.197677
0.222631 -0.761815 0.060000 -0.219938 -0.965895 0.136655
0.232105 -0.761580 0.060000 -0.146416 -0.983583 -0.105480
0.241579 -0.766773 0.060000 -0.112732 -0.986908 -0.115346
0.251052 -0.765681 0.060000 -0.036940 -0.992044 -0.120352
0.270000 -0.764537 0.060000 -0.133758 -0.987086 0.088145
0.288947 -0.766963 0.060000 -0.227186 -0.971737 0.064135
0.298421 -0.766549 0.060000 -0.234911 -0.971741 0.023156
0.307895 -0.765823 0.060000 -0.252151 -0.964836 -0.074242
0.326842 -0.765565 0.060000 -0.180838 -0.971433 0.153677
0.336316 -0.767336 0.060000 -0.215169 -0.961293 -0.172096
-0.393158 -0.726315 0.056657 -0.660798 -0.005708 0.750542
-0.389838 -0.726315 0.060000 -0.333682 -0.052965 0.941197
-0.345789 -0.726315 0.059794 -0.590185 -0.753825 -0.288842
-0.350027 -0.726315 0.060000 -0.612595 -0.788293 -0.057627
-0.345789 -0.727604 0.060000 -0.361861 -0.894751 -0.261681
-0.336316 -0.735737 0.060000 -0.281946 -0.900944 -0.329859
-0.336316 -0.726315 0.055128 -0.563337 -0.585514 -0.582945
-0.326842 -0.744543 0.060000 -0.196936 -0.975456 -0.098501
-0.318612 -0.726315 0.060000 -0.085313 -0.606563 0.790444
-0.307895 -0.726315 0.054982 -0.795050 -0.539494 -0.277204
-0.315529 -0.726315 0.060000 -0.334555 -0.550091 -0.765162
-0.298421 -0.739462 0.060000 -0.391277 -0.920270 -0.002547
-0.298421 -0.726315 0.054617 -0.706613 -0.696940 -0.122361
-0.393158 -0.705263 0.056815 -0.715297 -0.624265 0.314077
-0.383684 -0.705639 0.060000 -0.901024 -0.420608 0.106039
-0.383684 -0.705263 0.059786 -0.885354 -0.463360 -0.038024
-0.374211 -0.717149 0.060000 -0.487770 -0.808875 -0.328333
-0.374211 -0.705263 0.056007 -0.742489 -0.663115 -0.094807
-0.367547 -0.705263 0.060000 -0.183725 -0.689283 0.700809
-0.362136 -0.705263 0.060000 -0.153356 -0.611392 -0.776326
-0.355263 -0.725404 0.060000 -0.561060 -0.791865 -0.241167
-0.317368 -0.722345 0.060000 -0.420345 -0.876196 0.235777
-0.383684 -0.684210 0.054550 -0.458241 -0.844029 0.278621
-0.364737 -0.700565 0.060000 -0.203435 -0.975388 0.085050
-0.364737 -0.684210 0.054587 -0.825336 -0.563612 -0.034077
-0.222632 -0.621109 0.060000 -0.974510 -0.192445 -0.115302
-0.222656 -0.621052 0.060000 -0.049686 -0.415217 0.908365
-0.222608 -0.621052 0.060000 -0.058761 -0.452267 -0.889945
-0.222632 -0.620995 0.060000 -0.000218 -0.999905 -0.013796
-0.383684 -0.515789 0.056561 -0.640453 -0.059187 0.765713
-0.374211 -0.515789 0.056172 -0.536458 0.092319 -0.838862
-0.402632 -0.494736 0.055529 -0.961218 -0.200524 0.189340
-0.383684 -0.475096 0.060000 -0.536580 0.843517 -0.023698
-0.384579 -0.473684 0.060000 -0.482828 0.243362 0.841221
-0.374211 -0.473684 0.057189 -0.625792 0.687851 -0.367756
-0.381910 -0.473684 0.060000 -0.492060 0.712960 -0.499564
-0.194211 -0.473684 0.053785 -0.831430 0.444438 0.333464
-0.184737 -0.473684 0.054739 -0.846448 0.489000 0.210722
-0.175263 -0.473684 0.057067 -0.751735 0.605550 0.261158
-0.165790 -0.473684 0.059974 -0.793219 0.608220 0.029526
-0.412105 -0.452631 0.055695 -0.673308 0.200818 0.711568
-0.404393 -0.452631 0.060000 -0.454798 0.617139 0.642105
-0.402632 -0.455773 0.060000 -0.453959 0.828359 0.328242
-0.393158 -0.455316 0.060000 -0.487280 0.866889 0.105172
-0.374211 -0.458716 0.060000 -0.213256 0.915795 -0.340354
-0.364737 -0.453968 0.060000 -0.430302 0.802434 -0.413449
-0.364737 -0.452631 0.058946 0.148863 0.040967 -0.988009
-0.364086 -0.452631 0.060000 0.178525 0.253466 -0.950728
-0.194211 -0.452631 0.056576 -0.952796 -0.023322 0.302714
-0.184737 -0.452631 0.056184 -0.849627 0.445600 0.282091
-0.177010 -0.452631 0.060000 -0.545047 0.447819 0.708789
-0.175263 -0.456941 0.060000 -0.860674 0.350506 0.369305
-0.165790 -0.473228 0.060000 -0.926940 0.193618 -0.321393
-0.156316 -0.452631 0.058811 -0.748355 0.602099 -0.278283
-0.161953 -0.452631 0.060000 -0.581106 0.753556 -0.307359
-0.146842 -0.452631 0.054331 -0.428388 0.862613 -0.269039
-0.137369 -0.452631 0.054289 -0.502890 0.852343 -0.143573
-0.412105 -0.431578 0.055120 -0.803522 0.378852 0.459156
-0.404874 -0.431578 0.060000 -0.690918 0.121856 0.712589
-0.371917 -0.431578 0.060000 -0.741998 0.039862 -0.669216
-0.364737 -0.431578 0.056833 -0.654839 0.221104 -0.722702
-0.364737 -0.450844 0.060000 0.124749 -0.801202 -0.585246
-0.194211 -0.431578 0.055241 -0.687801 0.488141 0.537259
-0.184737 -0.431578 0.059185 -0.749547 0.444757 0.490277
-0.183117 -0.431578 0.060000 -0.507706 0.566657 0.648948
-0.156316 -0.449858 0.060000 -0.414092 0.896449 -0.157817
-0.146842 -0.446464 0.060000 -0.311691 0.935618 -0.165732
-0.137369 -0.443126 0.060000 -0.352582 0.898298 -0.262197
-0.127895 -0.436074 0.060000 -0.295620 0.924887 -0.239150
-0.118421 -0.431892 0.060000 -0.365477 0.872644 -0.323912
-0.118065 -0.431578 0.060000 -0.495461 0.672112 -0.550259
-0.412105 -0.419822 0.060000 -0.519089 0.631605 0.575866
-0.416128 -0.410526 0.060000 -0.233203 0.285958 0.929432
-0.364737 -0.419783 0.060000 -0.258967 0.688402 -0.677524
-0.361211 -0.410526 0.060000 0.009905 0.303111 -0.952904
-0.203684 -0.410526 0.054900 -0.606041 0.010393 0.795365
-0.198682 -0.410526 0.060000 -0.457938 0.274490 0.845546
-0.194211 -0.419882 0.060000 -0.406001 0.760907 0.506146
-0.184737 -0.428785 0.060000 -0.414502 0.764245 0.494083
-0.108947 -0.410526 0.057203 -0.288505 0.732166 -0.617007
-0.110094 -0.410526 0.060000 -0.381005 0.707872 -0.594771
-0.412346 -0.389473 0.060000 0.148725 -0.628375 0.763562
-0.402632 -0.389473 0.059981 -0.380225 -0.907516 0.178447
-0.403249 -0.389473 0.060000 -0.357788 -0.933494 -0.024015
-0.402632 -0.389586 0.060000 -0.601590 -0.703867 0.377705
-0.402591 -0.389473 0.060000 -0.335000 -0.860150 0.384599
-0.361780 -0.389473 0.060000 -0.153080 -0.454435 -0.877528
-0.195237 -0.389473 0.060000 -0.082098 0.028963 0.996203
-0.108947 -0.408920 0.060000 -0.264012 0.819450 -0.508724
-0.099474 -0.394569 0.060000 -0.280763 0.855329 -0.435413
-0.090000 -0.389473 0.056402 -0.396211 0.588543 -0.704723
-0.094688 -0.389473 0.060000 -0.365365 0.805795 -0.466050
-0.412105 -0.389190 0.060000 -0.148601 -0.957484 0.247270
-0.393158 -0.384489 0.060000 -0.153208 -0.973758 0.168293
-0.393158 -0.368420 0.053824 -0.857670 -0.509721 0.067721
-0.383684 -0.381580 0.060000 -0.183461 -0.982247 0.039155
-0.374211 -0.388282 0.060000 -0.516204 -0.795079 -0.318408
-0.374211 -0.368420 0.053959 -0.866799 -0.453924 0.206429
-0.364737 -0.377824 0.060000 -0.136543 -0.943679 -0.301373
-0.364737 -0.368420 0.056057 -0.591446 -0.339794 -0.731253
-0.203684 -0.368420 0.056996 -0.359845 0.322173 0.875623
-0.201603 -0.368420 0.060000 -0.160170 0.531201 0.831968
-0.090000 -0.368420 0.059341 -0.178047 0.640233 -0.747262
-0.090497 -0.368420 0.060000 -0.123194 0.666529 -0.735230
-0.364737 -0.353630 0.060000 -0.717343 0.406341 -0.565956
-0.366057 -0.347368 0.060000 -0.594423 0.198766 0.779201
-0.364140 -0.347368 0.060000 -0.267044 0.147596 -0.952314
-0.203684 -0.358329 0.060000 -0.042853 0.238579 0.970177
-0.204813 -0.347368 0.060000 -0.098795 -0.184417 0.977870
-0.090000 -0.367492 0.060000 -0.263771 0.745538 -0.612044
-0.083647 -0.347368 0.060000 -0.119526 0.471871 -0.873528
-0.412105 -0.332421 0.060000 -0.356394 0.929856 -0.091385
-0.414820 -0.326315 0.060000 -0.201187 0.031693 0.979040
-0.408097 -0.326315 0.060000 -0.171494 0.219206 -0.960489
-0.393158 -0.327626 0.060000 -0.329359 0.926557 0.181702
-0.394214 -0.326315 0.060000 -0.309197 0.513851 0.800221
-0.390455 -0.326315 0.060000 -0.665891 0.298045 -0.683929
-0.368139 -0.326315 0.060000 -0.015038 -0.125232 0.992013
-0.362663 -0.326315 0.060000 -0.061518 -0.195299 -0.978812
-0.203684 -0.338570 0.060000 -0.149510 -0.198363 0.968658
-0.203684 -0.326315 0.057311 -0.555750 0.212236 0.803802
-0.201053 -0.326315 0.060000 -0.254443 -0.074830 0.964188
-0.080526 -0.333668 0.060000 -0.000592 0.649464 -0.760392
-0.073968 -0.326315 0.060000 -0.033613 0.874851 -0.483224
-0.412105 -0.312746 0.060000 -0.638547 0.033039 0.768874
-0.412105 -0.305262 0.056531 -0.809111 0.496007 0.315144
-0.402632 -0.305262 0.058622 -0.987543 0.029844 0.154491
-0.393158 -0.319219 0.060000 -0.792683 -0.126519 0.596362
-0.393158 -0.305262 0.059065 -0.968933 0.139764 -0.204048
-0.374211 -0.311780 0.060000 -0.491343 -0.724597 0.483262
-0.377901 -0.305262 0.060000 -0.186529 -0.349203 0.918294
-0.371114 -0.305262 0.060000 0.253826 -0.314704 -0.914622
-0.364737 -0.318366 0.060000 -0.015292 -0.626411 -0.779343
-0.203684 -0.307763 0.060000 -0.335969 0.518078 0.786588
-0.204728 -0.305262 0.060000 -0.551073 0.621134 0.557236
-0.071053 -0.322221 0.060000 0.064379 0.709790 -0.701465
-0.064514 -0.305262 0.060000 -0.189122 0.729127 -0.657728
-0.412105 -0.284210 0.056395 -0.944739 0.025261 0.326848
-0.403705 -0.284210 0.060000 -0.688199 -0.095806 0.719169
-0.402632 -0.291957 0.060000 -0.987751 0.025640 0.153918
-0.393158 -0.284210 0.059414 -0.980780 0.025491 -0.193443
-0.398986 -0.284210 0.060000 -0.950952 0.076298 -0.299783
-0.383684 -0.284210 0.057824 -0.880951 -0.376016 -0.287295
-0.374211 -0.298828 0.060000 -0.425656 -0.863294 0.271182
-0.374181 -0.284308 0.053709 -0.587918 -0.282603 0.757950
-0.364737 -0.293825 0.060000 -0.270736 0.288168 -0.918510
-0.368835 -0.284210 0.060000 -0.190341 -0.464072 0.865106
-0.362024 -0.284210 0.060000 -0.057310 -0.248404 -0.966960
-0.213158 -0.284210 0.059276 -0.866435 -0.232262 0.441979
-0.203684 -0.288638 0.060000 -0.456379 0.210869 0.864438
-0.203684 -0.284210 0.059917 -0.596447 -0.007211 0.802620
-0.203619 -0.284210 0.060000 -0.083288 -0.032457 0.995997
-0.061579 -0.299859 0.060000 -0.080596 0.755519 -0.650150
-0.052985 -0.284210 0.060000 -0.205045 0.653053 -0.729025
-0.412105 -0.263157 0.054520 -0.996823 -0.030972 0.073376
-0.405391 -0.263157 0.060000 -0.398221 -0.274913 0.875124
-0.393158 -0.263157 0.058141 -0.776855 -0.409211 -0.478583
-0.398678 -0.263157 0.060000 -0.595481 -0.520733 -0.611752
-0.364737 -0.277426 0.060000 -0.200472 -0.972362 -0.119680
-0.203684 -0.263157 0.057330 -0.364441 -0.649035 0.667784
-0.202302 -0.263157 0.060000 -0.172232 -0.647969 0.741939
-0.052105 -0.280229 0.060000 -0.086656 0.374915 -0.923000
-0.049475 -0.263157 0.060000 -0.122010 0.466471 -0.876081
-0.402632 -0.258726 0.060000 -0.488907 -0.869636 0.068579
-0.393158 -0.242104 0.054319 -0.790387 -0.535745 -0.297097
-0.203684 -0.242104 0.054000 -0.802271 -0.028310 0.596289
-0.198295 -0.242104 0.060000 -0.386165 -0.138193 0.912019
-0.042632 -0.242104 0.055654 -0.447642 0.550901 -0.704361
-0.045307 -0.242104 0.060000 -0.209399 0.541170 -0.814424
0.156316 -0.242104 0.054109 -0.755817 0.652268 0.057334
0.175263 -0.242104 0.053977 -0.829057 0.548601 0.108173
-0.419464 -0.221052 0.060000 -0.150025 0.211453 -0.965805
-0.393158 -0.221052 0.054106 -0.964627 0.256036 -0.062777
-0.213158 -0.221052 0.055667 -0.738051 0.351703 0.575835
-0.203684 -0.221052 0.057932 -0.189288 0.077796 0.978835
-0.203466 -0.221052 0.060000 -0.369694 0.015212 0.929029
-0.042632 -0.236021 0.060000 -0.197252 0.781447 -0.591973
-0.035536 -0.221052 0.060000 -0.230531 0.648352 -0.725600
0.137368 -0.221052 0.054776 -0.897174 0.164829 0.409768
0.146842 -0.221052 0.055841 -0.816745 0.513462 0.263219
0.156316 -0.221052 0.058817 -0.806233 0.519517 0.283005
0.165789 -0.221052 0.059632 -0.909579 0.389903 -0.143673
0.175263 -0.221052 0.056673 -0.842554 0.402355 -0.358069
0.184737 -0.221052 0.053808 -0.890609 0.126196 -0.436910
-0.412583 -0.199999 0.060000 -0.351423 -0.193060 -0.916095
-0.393158 -0.199999 0.056678 -0.510934 0.345525 -0.787120
-0.336316 -0.199999 0.053921 -0.719799 0.693804 -0.022933
-0.317368 -0.199999 0.055116 -0.865415 0.442849 0.234397
-0.307895 -0.199999 0.056865 -0.895379 0.399013 -0.197700
-0.222632 -0.204991 0.060000 -0.516968 0.205071 0.831078
-0.223346 -0.199999 0.060000 -0.208262 0.020288 0.977863
-0.218404 -0.199999 0.060000 -0.706000 0.434204 -0.559492
-0.199387 -0.199999 0.060000 -0.317204 -0.521519 0.792086
-0.033158 -0.215805 0.060000 -0.161671 0.699113 -0.696494
-0.023684 -0.199999 0.056431 -0.247399 0.630570 -0.735646
-0.025592 -0.199999 0.060000 -0.174112 0.717297 -0.674663
0.137368 -0.199999 0.054741 -0.755280 0.516878 0.402975
0.146842 -0.199999 0.058061 -0.736023 0.487725 0.469463
0.151066 -0.199999 0.060000 -0.766891 0.515052 0.382882
0.156316 -0.213178 0.060000 -0.915500 0.370797 0.156106
0.165789 -0.213543 0.060000 -0.938271 0.272421 -0.213153
0.175263 -0.199999 0.059884 -0.753483 0.503795 -0.422438
0.174238 -0.199999 0.060000 -0.801862 0.590823 -0.089139
0.194210 -0.199999 0.054601 -0.790116 0.612297 0.028429
-0.418924 -0.178946 0.060000 -0.442162 0.017080 -0.896773
-0.393158 -0.178946 0.056298 -0.879287 0.229867 -0.417152
-0.364737 -0.178946 0.055243 -0.742436 0.591623 0.314278
-0.355263 -0.178946 0.055209 -0.692540 0.707954 -0.138524
-0.336316 -0.178946 0.057605 -0.799040 0.576342 0.171362
-0.326842 -0.178946 0.056606 -0.866251 0.486825 -0.112302
-0.317368 -0.178946 0.056240 -0.754936 0.644643 0.120443
-0.307895 -0.178946 0.058577 -0.846056 0.465075 -0.260565
-0.288947 -0.178946 0.055720 -0.799298 0.554807 0.230892
-0.279474 -0.178946 0.054218 -0.840789 0.415483 -0.347055
-0.224195 -0.178946 0.060000 -0.149945 0.283244 0.947254
-0.213158 -0.178946 0.058761 -0.659447 0.609991 -0.439364
-0.214572 -0.178946 0.060000 -0.653751 0.552197 -0.517386
-0.203684 -0.178946 0.057461 -0.927799 -0.358319 -0.103902
-0.194211 -0.189678 0.060000 -0.548398 -0.648508 0.527918
-0.194211 -0.178946 0.056964 -0.778652 -0.559198 0.284602
-0.188441 -0.178946 0.060000 -0.571867 -0.649184 0.501525
-0.023684 -0.195446 0.060000 -0.127649 0.650788 -0.748452
-0.016124 -0.178946 0.060000 -0.054037 0.740409 -0.669981
0.127895 -0.178946 0.055810 -0.740232 0.559222 0.373266
0.137368 -0.178946 0.058983 -0.733354 0.483195 0.478241
0.139538 -0.178946 0.060000 -0.608235 0.488021 0.626008
0.146842 -0.194869 0.060000 -0.691213 0.610011 0.387443
0.175263 -0.199762 0.060000 -0.607283 0.728738 -0.316463
0.184737 -0.188131 0.060000 -0.564637 0.780966 -0.266979
0.194210 -0.183916 0.060000 -0.753950 0.586155 -0.296616
0.203684 -0.178946 0.057677 -0.653097 0.492528 -0.575222
0.197722 -0.178946 0.060000 -0.652544 0.551744 -0.519389
-0.412105 -0.163634 0.060000 -0.490988 0.541550 -0.682388
-0.409200 -0.157894 0.060000 -0.476281 -0.342158 -0.809990
-0.364737 -0.157894 0.059428 -0.172801 -0.104535 0.979394
-0.364589 -0.157894 0.060000 -0.504086 0.348288 0.790312
-0.355263 -0.169694 0.060000 -0.456955 0.888678 -0.037993
-0.345789 -0.167436 0.060000 -0.376340 0.916242 0.137364
-0.336316 -0.171883 0.060000 -0.504183 0.863006 0.031942
-0.326842 -0.170082 0.060000 -0.442117 0.896916 0.008641
-0.317368 -0.171148 0.060000 -0.299689 0.946999 0.115666
-0.307895 -0.174557 0.060000 -0.457445 0.806760 -0.374009
-0.298421 -0.161406 0.060000 -0.105621 0.994406 -0.001248
-0.288947 -0.169052 0.060000 -0.319727 0.947144 0.026323
-0.279474 -0.162240 0.060000 -0.236364 0.932543 -0.272938
-0.270000 -0.157894 0.057601 -0.263849 0.795199 -0.545932
-0.271682 -0.157894 0.060000 -0.311071 0.840646 -0.443339
-0.251053 -0.164910 0.060000 -0.285648 0.957508 -0.039787
-0.256994 -0.157894 0.060000 -0.184565 0.605973 0.773778
-0.241579 -0.158130 0.060000 -0.046941 0.978149 -0.202538
-0.237692 -0.157894 0.060000 -0.249379 0.966727 -0.057002
-0.231899 -0.157894 0.060000 -0.010704 0.329520 0.944088
-0.213158 -0.176740 0.060000 -0.608712 0.688364 -0.394493
-0.203848 -0.157894 0.060000 0.349257 0.543782 -0.763099
-0.184737 -0.175369 0.060000 -0.363380 -0.818547 0.444900
-0.179184 -0.157894 0.060000 -0.250854 -0.346843 0.903754
-0.014211 -0.175071 0.060000 -0.008872 0.753493 -0.657396
-0.004737 -0.157894 0.059535 -0.299144 0.861978 -0.409276
-0.005085 -0.157894 0.060000 -0.150290 0.806208 -0.572225
0.118421 -0.157894 0.055946 -0.774722 0.481877 0.409391
0.127895 -0.157894 0.059586 -0.856779 0.355176 0.373872
0.129960 -0.157894 0.060000 -0.716106 0.573162 0.398342
0.137368 -0.172032 0.060000 -0.700489 0.449159 0.554590
0.203684 -0.165670 0.060000 -0.548669 0.486101 -0.680198
0.213158 -0.157894 0.053711 -0.719972 0.420529 -0.552082
0.205609 -0.157894 0.060000 -0.531085 0.359021 -0.767498
0.222631 -0.157894 0.053712 -0.904344 0.195446 -0.379423
-0.412105 -0.151799 0.060000 -0.417260 -0.671674 -0.612166
-0.357809 -0.136841 0.060000 -0.737946 -0.179118 0.650655
-0.270000 -0.148171 0.060000 -0.525974 0.406879 -0.746861
-0.266920 -0.136841 0.060000 -0.447929 0.481034 -0.753635
-0.251053 -0.137141 0.060000 -0.002134 0.630567 0.776131
-0.241579 -0.136841 0.056186 0.923742 0.195213 -0.329535
-0.250743 -0.136841 0.060000 -0.454405 0.797804 0.396264
-0.232105 -0.155897 0.060000 0.126437 0.580701 0.804239
-0.232105 -0.136841 0.058424 0.958721 0.107558 0.263222
-0.213158 -0.136841 0.057043 0.909584 0.227539 -0.347683
-0.205442 -0.136841 0.060000 0.153917 0.419188 -0.894757
-0.175263 -0.142563 0.060000 -0.514794 -0.220667 0.828428
-0.175263 -0.136841 0.058516 -0.672632 -0.106010 0.732344
-0.173051 -0.136841 0.060000 -0.525757 -0.190527 0.829023
-0.162440 -0.136841 0.060000 -0.299996 -0.374909 -0.877180
-0.156316 -0.145366 0.060000 -0.336648 -0.852932 0.398968
-0.152311 -0.136841 0.060000 -0.208911 -0.167992 0.963398
-0.004737 -0.157453 0.060000 -0.136766 0.955940 -0.259759
0.004737 -0.152165 0.060000 -0.050525 0.680294 -0.731196
0.008749 -0.136841 0.060000 -0.071851 0.542441 -0.837015
0.108947 -0.141766 0.060000 -0.423791 0.843754 0.329363
0.106594 -0.136841 0.060000 -0.382247 0.513011 0.768574
0.118421 -0.140578 0.060000 -0.590613 0.782029 0.199015
0.127895 -0.155095 0.060000 -0.651983 0.608228 0.452744
0.213158 -0.136841 0.056015 -0.712539 0.364160 -0.599729
0.209120 -0.136841 0.060000 -0.506681 0.397080 -0.765246
-0.364737 -0.115788 0.054191 0.594446 -0.774371 0.216758
-0.364737 -0.128118 0.060000 -0.496095 0.677876 0.542562
-0.368257 -0.115788 0.060000 -0.163653 -0.086548 0.982714
-0.356895 -0.115788 0.060000 -0.275904 0.479228 -0.833197
-0.355263 -0.125150 0.060000 -0.988148 0.142877 0.056119
-0.350923 -0.115788 0.060000 -0.859434 0.318119 0.400217
-0.260526 -0.122936 0.060000 -0.227885 0.909230 0.348381
-0.260526 -0.115788 0.054191 0.346021 0.789892 0.506300
-0.251053 -0.136629 0.060000 -0.276339 0.923823 0.264930
-0.203684 -0.115788 0.055806 0.535253 -0.688477 -0.489392
-0.203684 -0.132682 0.060000 -0.078279 0.586593 -0.806090
-0.200148 -0.115788 0.060000 -0.150211 -0.268680 -0.951445
-0.175263 -0.115788 0.057123 -0.552577 -0.516811 0.653884
-0.170361 -0.115788 0.060000 -0.486881 -0.649177 0.584393
-0.156316 -0.120552 0.060000 -0.650870 0.315266 0.690635
0.014210 -0.125757 0.060000 -0.176114 0.850156 -0.496204
0.023684 -0.115788 0.059893 -0.387279 0.860010 -0.332261
0.023679 -0.115788 0.060000 -0.257750 0.688254 -0.678138
0.023713 -0.115788 0.060000 -0.533795 0.831289 0.154985
0.033158 -0.118063 0.060000 -0.270930 0.811413 -0.517886
0.034062 -0.115788 0.060000 -0.367169 0.124116 -0.921836
0.099474 -0.115788 0.056580 -0.572052 0.487458 0.659652
0.103253 -0.115788 0.060000 -0.320780 0.425003 0.846447
0.213158 -0.125438 0.060000 -0.506589 0.650613 -0.565747
0.222631 -0.115788 0.059770 -0.647967 0.471545 -0.598151
0.222124 -0.115788 0.060000 -0.678426 0.580279 -0.450571
-0.364737 -0.096841 0.060000 -0.442957 -0.090730 0.891940
-0.362078 -0.094736 0.060000 -0.617918 -0.616196 0.488345
-0.355263 -0.106899 0.060000 -0.878413 0.423811 0.220852
-0.260526 -0.094736 0.054842 0.875450 0.303162 -0.376403
-0.251053 -0.094736 0.055951 0.933710 0.321158 0.158252
-0.208303 -0.094736 0.060000 0.201311 -0.146086 -0.968573
-0.203684 -0.109287 0.060000 -0.096134 -0.730930 -0.675647
-0.165790 -0.111804 0.060000 -0.367962 -0.910449 0.188910
-0.156316 -0.111224 0.060000 -0.251458 -0.835769 0.488117
-0.151437 -0.094736 0.060000 -0.119982 -0.354484 0.927332
0.023684 -0.094736 0.055500 -0.264853 0.739147 -0.619286
0.022773 -0.094736 0.060000 -0.221694 0.722132 -0.655268
0.033158 -0.105984 0.060000 -0.790120 -0.041138 -0.611570
0.033158 -0.094736 0.057234 -0.366758 0.925287 -0.096600
0.042631 -0.094736 0.054922 -0.596067 0.801016 0.055474
0.052105 -0.094736 0.057739 -0.545363 0.833930 -0.084502
0.080526 -0.094736 0.055857 -0.576787 0.686367 0.442964
0.090000 -0.094736 0.059712 -0.484916 0.774183 0.406813
0.090441 -0.094736 0.060000 -0.379949 0.843774 0.379057
0.099474 -0.105027 0.060000 -0.301251 0.726550 0.617553
0.222631 -0.113506 0.060000 -0.612582 0.244203 -0.751737
0.224577 -0.094736 0.060000 -0.392627 0.351601 -0.849836
-0.355263 -0.083930 0.060000 -0.159964 -0.272904 0.948649
-0.354195 -0.073683 0.060000 -0.146140 -0.063227 0.987241
-0.207145 -0.073683 0.060000 0.006104 -0.081380 -0.996664
-0.146842 -0.077626 0.060000 -0.222759 -0.301893 0.926951
-0.146842 -0.073683 0.058728 -0.546505 0.098689 0.831621
-0.145717 -0.073683 0.060000 -0.138194 0.037295 0.989703
0.023684 -0.093922 0.060000 -0.164894 0.972200 -0.166243
0.033158 -0.092893 0.060000 -0.134403 0.980194 -0.145451
0.042631 -0.088115 0.060000 -0.293387 0.955864 0.015742
0.052105 -0.091263 0.060000 -0.402813 0.882137 -0.244084
0.061579 -0.084243 0.060000 -0.307712 0.896223 -0.319527
0.071052 -0.073819 0.060000 -0.312483 0.949849 -0.011929
0.080526 -0.086517 0.060000 -0.411018 0.834792 0.366314
0.090000 -0.094370 0.060000 -0.257800 0.888448 0.379735
0.232105 -0.073683 0.057558 -0.593879 0.486318 -0.640939
0.229621 -0.073683 0.060000 -0.444783 0.408954 -0.796822
0.241579 -0.073683 0.054197 -0.716610 0.508309 -0.477591
-0.349865 -0.052630 0.060000 -0.199020 -0.203105 0.958717
-0.265967 -0.052630 0.060000 0.039471 -0.596563 -0.801595
-0.260526 -0.060237 0.060000 -0.017344 -0.944108 -0.329180
-0.251053 -0.061998 0.060000 0.080247 -0.955746 0.283037
-0.241579 -0.052630 0.054210 0.209967 -0.898817 0.384761
-0.243482 -0.052630 0.060000 0.076802 -0.510186 0.856628
-0.232105 -0.052630 0.054109 0.477897 -0.833304 -0.277882
-0.225746 -0.052630 0.060000 0.168070 -0.736308 -0.655441
-0.222632 -0.056037 0.060000 0.049763 -0.974276 -0.219797
-0.213158 -0.053417 0.060000 0.154831 -0.959103 -0.236959
-0.156316 -0.052630 0.057264 -0.456162 -0.648623 0.609265
-0.153091 -0.052630 0.060000 -0.537943 0.040255 0.842020
-0.146842 -0.067847 0.060000 -0.241769 0.533099 0.810773
0.232105 -0.062122 0.060000 -0.555690 0.454213 -0.696347
0.241579 -0.052630 0.056649 -0.630106 0.521384 -0.575435
0.235845 -0.052630 0.060000 -0.423470 0.772053 -0.473927
-0.349599 -0.031578 0.060000 -0.149825 0.285472 0.946603
-0.264548 -0.031578 0.060000 0.230191 -0.194530 -0.953504
-0.251053 -0.031578 0.058818 0.993260 -0.096969 0.063491
-0.251053 -0.036591 0.060000 0.240612 0.867558 0.435257
-0.256935 -0.031578 0.060000 0.435596 0.427496 0.792151
-0.241579 -0.031578 0.059122 0.976118 -0.201940 -0.080087
-0.232105 -0.031578 0.059722 0.765884 0.011105 -0.642882
-0.231796 -0.031578 0.060000 -0.024913 -0.267608 -0.963206
-0.146842 -0.046607 0.060000 -0.225248 -0.810402 0.540844
-0.141161 -0.031578 0.060000 -0.070294 -0.496744 0.865045
0.241579 -0.046450 0.060000 -0.385067 0.810104 -0.442102
0.251052 -0.037199 0.060000 -0.336775 0.880322 -0.334090
0.260526 -0.031578 0.056139 -0.228360 0.732874 -0.640895
0.257819 -0.031578 0.060000 -0.534631 0.653424 -0.535917
-0.355263 -0.015028 0.060000 -0.144762 0.725175 0.673175
-0.360240 -0.010525 0.060000 -0.150230 0.802478 0.577460
-0.266391 -0.010525 0.060000 0.294604 0.048647 -0.954380
-0.251053 -0.011120 0.060000 0.684369 -0.670789 0.285798
-0.241579 -0.023237 0.060000 0.803207 -0.591861 0.067524
-0.238772 -0.010525 0.060000 0.054089 0.141671 0.988435
-0.232105 -0.010525 0.058056 0.958510 -0.276180 -0.070584
-0.229365 -0.010525 0.060000 0.228174 -0.050464 -0.972312
-0.137369 -0.017375 0.060000 -0.071000 -0.442992 0.893710
-0.135216 -0.010525 0.060000 -0.068832 -0.274811 0.959031
0.260526 -0.018685 0.060000 -0.480227 0.012837 -0.877050
0.261313 -0.010525 0.060000 -0.324237 -0.214681 -0.921294
-0.364737 0.010528 0.056163 0.440190 0.360235 0.822474
-0.364737 0.000690 0.060000 -0.015571 0.416292 0.909098
-0.366821 0.010528 0.060000 0.280403 0.420342 0.862952
-0.262565 0.010528 0.060000 0.354393 0.624691 -0.695821
-0.241579 0.010528 0.059596 0.849904 0.513378 -0.118771
-0.241579 0.006237 0.060000 0.739109 -0.656449 -0.150972
-0.246508 0.010528 0.060000 0.515677 0.852819 0.082323
-0.232105 0.001790 0.060000 0.391382 -0.409697 -0.823996
-0.240330 0.010528 0.060000 0.448655 0.721289 -0.527684
-0.134577 0.010528 0.060000 0.045843 -0.507199 0.860609
0.260526 0.010528 0.054879 -0.529352 -0.006564 -0.848377
0.251750 0.010528 0.060000 -0.803464 -0.155961 -0.574563
0.260526 -0.004965 0.060000 -0.683147 -0.349419 -0.641261
-0.402632 0.030607 0.060000 0.001840 0.969813 0.243844
-0.403642 0.031580 0.060000 -0.355521 0.530538 0.769503
-0.393158 0.031580 0.056779 0.325386 0.858169 0.397077
-0.393158 0.028037 0.060000 -0.025559 0.942041 0.334523
-0.383684 0.017414 0.060000 0.066864 0.997580 0.019081
-0.374211 0.022317 0.060000 0.171131 0.971709 0.162773
-0.260526 0.013566 0.060000 0.160028 0.958219 -0.237080
-0.251053 0.011075 0.060000 0.333674 0.940621 0.062402
-0.232105 0.031580 0.055654 0.402652 0.712974 -0.574055
-0.232105 0.019568 0.060000 0.106125 0.781222 -0.615166
-0.228568 0.031580 0.060000 0.017532 0.551056 -0.834284
-0.127895 0.026520 0.060000 -0.197715 -0.690162 0.696121
-0.127895 0.031580 0.057369 -0.420626 -0.583862 0.694391
-0.124840 0.031580 0.060000 -0.378268 -0.680005 0.628097
0.252412 0.031580 0.060000 -0.556192 0.044881 -0.829841
-0.402632 0.036482 0.060000 -0.262963 -0.333777 0.905231
-0.400601 0.052633 0.060000 0.122267 -0.019746 0.992301
-0.222632 0.046821 0.060000 -0.039267 0.678696 -0.733369
-0.218686 0.052633 0.060000 -0.239741 0.223929 -0.944659
-0.118421 0.040166 0.060000 -0.312567 -0.793713 0.521845
-0.118421 0.052633 0.056456 -0.759300 -0.462324 0.457951
-0.111390 0.052633 0.060000 -0.380187 -0.478111 0.791750
0.260526 0.052633 0.054198 -0.381398 -0.543767 -0.747565
0.254663 0.052633 0.060000 -0.391913 -0.088596 -0.915727
-0.393158 0.063657 0.060000 0.144828 -0.690887 0.708308
-0.389768 0.073686 0.060000 0.061360 0.230288 0.971186
-0.223558 0.073686 0.060000 -0.062768 -0.008017 -0.997996
-0.222632 0.068843 0.060000 -0.056966 -0.470210 -0.880714
-0.165790 0.064317 0.060000 0.001063 0.952008 -0.306072
-0.170897 0.073686 0.060000 0.044637 0.057177 0.997366
-0.161546 0.073686 0.060000 0.090739 0.147775 -0.984850
-0.112797 0.073686 0.060000 -0.135712 0.121211 0.983306
0.252829 0.073686 0.060000 -0.178693 -0.122965 -0.976191
-0.402632 0.094254 0.060000 0.025552 0.734335 0.678306
-0.402755 0.094738 0.060000 -0.150384 0.033938 0.988045
-0.393158 0.082408 0.060000 0.101112 0.835081 0.540754
-0.222632 0.077305 0.060000 -0.168584 0.559224 -0.811694
-0.213158 0.092557 0.060000 -0.086465 0.761515 -0.642354
-0.211801 0.094738 0.060000 -0.046278 0.844182 -0.534055
-0.194211 0.094738 0.054696 -0.592898 0.796271 0.120101
-0.165790 0.087377 0.060000 0.000631 -0.922207 -0.386695
-0.165790 0.094738 0.058076 -0.802121 0.587417 -0.107436
-0.156316 0.094738 0.055096 -0.781544 0.610521 -0.128268
-0.146842 0.094738 0.059954 -0.564674 0.317091 0.761969
-0.146778 0.094738 0.060000 -0.173548 0.875619 0.450747
-0.137369 0.079301 0.060000 0.007878 0.974531 -0.224114
-0.127895 0.094738 0.057542 0.172763 0.768653 -0.615894
-0.127895 0.091963 0.060000 0.011451 0.662738 -0.748764
-0.126608 0.094738 0.060000 0.059129 0.584905 -0.808944
-0.113696 0.094738 0.060000 0.055108 0.280026 0.958409
0.252183 0.094738 0.060000 -0.476550 -0.413151 -0.776020
-0.402632 0.115791 0.054486 0.769571 0.107881 0.629383
-0.407283 0.115791 0.060000 0.079612 -0.134818 0.987667
-0.203684 0.103517 0.060000 -0.027685 0.982397 -0.184740
-0.194211 0.101873 0.060000 -0.081820 0.996644 0.002607
-0.184737 0.102357 0.060000 0.006724 0.997404 0.071698
-0.175263 0.099197 0.060000 0.028537 0.990572 0.133986
-0.165790 0.097423 0.060000 -0.020779 0.994751 -0.100196
-0.156316 0.104861 0.060000 -0.182675 0.983162 0.004803
-0.146842 0.094789 0.060000 -0.232539 0.786063 0.572739
-0.118421 0.106611 0.060000 0.178737 0.980783 -0.078214
0.243475 0.115791 0.060000 -0.167982 -0.661412 -0.730969
0.251052 0.096744 0.060000 -0.277819 -0.662474 -0.695661
-0.402632 0.130876 0.060000 0.249294 -0.512256 0.821855
-0.401248 0.136844 0.060000 0.123446 -0.397925 0.909075
-0.195546 0.136844 0.060000 0.341881 -0.655342 -0.673531
-0.194211 0.136158 0.060000 0.138734 -0.950464 -0.278158
-0.184737 0.130760 0.060000 0.086647 -0.995923 0.025076
-0.175263 0.136086 0.060000 0.009681 -0.988826 0.148760
-0.175263 0.136844 0.057253 -0.329961 -0.900979 0.281715
-0.165790 0.135039 0.060000 -0.145056 -0.984339 -0.100182
-0.165790 0.136844 0.058913 -0.615597 -0.784695 -0.072759
-0.156316 0.131655 0.060000 -0.130391 -0.967981 -0.214503
-0.156316 0.136844 0.057855 -0.722193 -0.631767 -0.281617
-0.146842 0.125919 0.060000 -0.186578 -0.973514 0.132133
-0.146842 0.136844 0.054531 -0.858558 -0.076834 0.506926
-0.141134 0.136844 0.060000 -0.129162 -0.501724 0.855331
-0.127895 0.136844 0.057442 -0.872040 0.053697 -0.486480
-0.132437 0.136844 0.060000 -0.293359 0.003812 -0.955995
-0.127895 0.130675 0.060000 -0.028381 -0.968406 -0.247758
-0.120644 0.136844 0.060000 -0.514935 -0.286550 0.807917
0.234222 0.136844 0.060000 -0.373218 -0.461248 -0.804959
0.241579 0.119827 0.060000 -0.299149 -0.659460 -0.689654
-0.393158 0.153482 0.060000 0.098793 -0.781482 0.616057
-0.391113 0.157896 0.060000 0.081265 -0.802555 0.591017
-0.232105 0.157896 0.058464 -0.539359 -0.522465 0.660396
-0.233455 0.157896 0.060000 -0.203066 0.155984 -0.966661
-0.232105 0.155727 0.060000 -0.436135 -0.885073 0.162581
-0.231004 0.157896 0.060000 -0.419800 -0.377474 0.825398
-0.210688 0.157896 0.060000 -0.240241 -0.633007 -0.735926
-0.203684 0.145099 0.060000 -0.403245 -0.760920 -0.508324
-0.194211 0.147179 0.060000 0.574709 0.180676 -0.798164
-0.195148 0.157896 0.060000 -0.288862 -0.706228 0.646375
-0.194211 0.157896 0.058005 0.755379 -0.597654 0.268722
-0.188858 0.157896 0.060000 -0.887556 -0.061584 -0.456566
-0.165790 0.157896 0.054967 -0.513048 -0.813856 0.272799
-0.156316 0.157896 0.055009 -0.588347 -0.807856 0.034864
-0.146842 0.157896 0.055807 -0.692007 -0.573856 0.437967
-0.141445 0.157896 0.060000 -0.449542 -0.229980 0.863146
-0.127895 0.144223 0.060000 -0.482277 0.875917 -0.013359
0.232754 0.157896 0.060000 -0.366232 -0.455882 -0.811200
-0.383684 0.168236 0.060000 -0.058752 -0.923565 0.378913
-0.374211 0.172820 0.060000 0.006113 -0.991232 0.131993
-0.364737 0.164280 0.060000 0.357328 -0.746798 0.560901
-0.355263 0.178949 0.054601 0.330660 -0.709739 0.622040
-0.359146 0.178949 0.060000 0.124209 -0.845379 0.519525
-0.336316 0.178949 0.058135 0.310425 -0.884621 -0.347968
-0.298421 0.178949 0.059416 -0.301521 -0.921229 0.245808
-0.299514 0.178949 0.060000 -0.204201 -0.895395 -0.395690
-0.298421 0.177889 0.060000 0.019240 -0.999511 0.024668
-0.297786 0.178949 0.060000 -0.285657 -0.725429 0.626221
-0.232105 0.160992 0.060000 -0.496737 0.867412 0.029127
-0.211325 0.178949 0.060000 -0.197595 -0.347479 -0.916632
-0.194211 0.160783 0.060000 -0.192274 -0.907521 0.373413
-0.137369 0.169967 0.060000 -0.362894 -0.679509 0.637633
-0.127895 0.175894 0.060000 -0.285583 -0.946817 0.148260
-0.127895 0.178949 0.054806 -0.189363 -0.981004 -0.042097
-0.118421 0.175788 0.060000 -0.589963 -0.790757 -0.163239
-0.108947 0.158030 0.060000 -0.824415 -0.456638 -0.334398
-0.108947 0.178949 0.057868 -0.523298 -0.843414 0.121706
-0.102572 0.178949 0.060000 -0.305164 -0.812361 0.496935
-0.098350 0.178949 0.060000 -0.162759 -0.732699 -0.660803
-0.090000 0.166998 0.060000 -0.339340 -0.879157 0.334560
-0.083068 0.178949 0.060000 -0.195589 -0.683234 0.703517
0.227928 0.178949 0.060000 -0.354559 -0.167784 -0.919857
0.232105 0.159590 0.060000 -0.305932 -0.494678 -0.813449
-0.355263 0.185566 0.060000 0.145288 -0.660194 0.736909
-0.350486 0.200001 0.060000 0.260999 -0.628092 0.733062
-0.343112 0.200001 0.060000 0.061828 -0.432304 -0.899606
-0.336316 0.181231 0.060000 0.427733 -0.888403 -0.166686
-0.326842 0.200001 0.057886 0.250694 -0.881958 0.399127
-0.329165 0.200001 0.060000 0.297521 -0.510277 0.806907
-0.320434 0.200001 0.060000 0.693665 -0.484682 -0.532835
-0.317368 0.194151 0.060000 0.586009 -0.677724 -0.444166
-0.307895 0.186023 0.060000 0.158991 -0.955557 -0.248259
-0.288947 0.193389 0.060000 -0.000596 -0.913116 0.407701
-0.279474 0.196695 0.060000 0.132310 -0.991068 -0.016654
-0.279474 0.200001 0.057503 -0.727695 -0.651213 0.215364
-0.270000 0.190829 0.060000 -0.524537 -0.840914 0.133134
-0.270000 0.200001 0.055770 -0.497621 -0.846807 -0.187862
-0.261679 0.200001 0.060000 -0.130997 -0.705630 0.696366
-0.260526 0.200001 0.058729 0.138670 -0.882147 -0.450096
-0.259638 0.200001 0.060000 -0.008283 -0.517429 -0.855686
-0.251053 0.186383 0.060000 -0.164001 -0.985241 -0.049026
-0.241579 0.200001 0.058279 0.833689 -0.542516 -0.103142
-0.244853 0.200001 0.060000 0.097065 -0.133715 0.986255
-0.239289 0.200001 0.060000 0.066200 -0.462788 -0.883994
-0.232105 0.188105 0.060000 -0.157309 -0.986014 -0.055054
-0.222632 0.194327 0.060000 -0.029577 -0.989823 0.139193
-0.213158 0.187024 0.060000 -0.300484 -0.715367 -0.630841
-0.118421 0.187937 0.060000 -0.687385 -0.722666 -0.072502
-0.119633 0.200001 0.060000 -0.261245 -0.440024 0.859145
-0.118421 0.200001 0.057464 -0.329695 -0.939287 -0.095085
-0.117184 0.200001 0.060000 -0.082983 -0.427863 -0.900026
-0.099474 0.181701 0.060000 -0.009604 -0.977965 -0.208549
-0.080526 0.186454 0.060000 -0.182333 -0.315437 0.931265
-0.079030 0.200001 0.060000 -0.012440 -0.269024 0.963053
0.232105 0.200001 0.058163 -0.408851 -0.143289 -0.901282
0.231071 0.200001 0.060000 -0.481649 -0.203731 -0.852354
-0.345789 0.218897 0.060000 0.766564 -0.380157 0.517552
-0.326842 0.205409 0.060000 0.537977 -0.833472 0.126117
-0.279474 0.214927 0.060000 0.433566 0.584390 -0.685936
-0.282729 0.221054 0.060000 0.468880 -0.561954 0.681439
-0.270000 0.221054 0.055975 -0.706823 -0.231193 -0.668544
-0.277903 0.221054 0.060000 0.274705 -0.785408 -0.554681
-0.264185 0.221054 0.060000 0.144982 -0.214107 0.965991
-0.260526 0.221054 0.056598 0.486906 -0.873092 -0.025163
-0.251053 0.217082 0.060000 0.519287 0.792482 -0.319864
-0.251053 0.221054 0.057752 0.964716 0.256787 -0.058163
-0.241579 0.221054 0.057428 0.864936 -0.018775 -0.501530
-0.239517 0.221054 0.060000 -0.215669 -0.052182 -0.975071
-0.118421 0.207853 0.060000 -0.118965 -0.988989 -0.088020
-0.075543 0.221054 0.060000 -0.061561 -0.229199 0.971431
0.223550 0.221054 0.060000 -0.334222 -0.658482 -0.674312
-0.393158 0.242107 0.059517 0.670874 0.738344 0.069110
-0.393158 0.240875 0.060000 0.311085 0.749453 0.584419
-0.393775 0.242107 0.060000 0.370445 0.706361 0.603179
-0.391992 0.242107 0.060000 0.221417 0.827904 -0.515316
-0.374211 0.242107 0.057343 0.807446 0.546817 0.221409
-0.374211 0.231332 0.060000 0.742272 0.666504 0.069314
-0.378046 0.242107 0.060000 0.335223 0.695491 0.635546
-0.367857 0.242107 0.060000 0.551177 0.661676 -0.508320
-0.345789 0.242107 0.056168 0.783693 0.546695 0.294874
-0.345789 0.222201 0.060000 0.635992 0.705101 0.313603
-0.351559 0.242107 0.060000 0.425646 0.540042 0.726072
-0.337060 0.242107 0.060000 0.518812 0.535466 -0.666416
-0.326842 0.233564 0.060000 0.556022 0.829263 -0.056234
-0.335426 0.242107 0.060000 0.392968 0.735691 0.551666
-0.318443 0.242107 0.060000 0.264789 0.817672 -0.511174
-0.279474 0.222418 0.060000 0.098128 -0.983243 -0.153634
-0.260526 0.227826 0.060000 0.420461 -0.738898 0.526538
-0.255308 0.242107 0.060000 0.577792 -0.119917 0.807327
-0.251053 0.242107 0.057096 0.783097 -0.528094 0.328444
-0.243484 0.242107 0.060000 0.694292 -0.168812 -0.699615
-0.241579 0.233852 0.060000 0.117910 -0.133753 -0.983975
-0.146842 0.242107 0.055619 0.769330 0.025277 0.638351
-0.146842 0.233551 0.060000 0.183868 0.762183 0.620701
-0.149442 0.242107 0.060000 0.039593 0.181706 0.982556
-0.139801 0.242107 0.060000 0.153808 0.687178 -0.710021
-0.127895 0.235014 0.060000 -0.039423 0.994087 0.101181
-0.135102 0.242107 0.060000 0.105776 0.578698 0.808654
-0.122045 0.242107 0.060000 0.088259 0.590752 -0.802011
-0.076846 0.242107 0.060000 -0.138565 0.043527 0.989396
0.217109 0.242107 0.060000 -0.097422 -0.322000 -0.941714
0.222631 0.222703 0.060000 -0.394706 -0.731297 -0.556248
-0.402169 0.263160 0.060000 0.260942 0.392223 0.882083
-0.383684 0.246105 0.060000 0.207387 0.977080 0.048004
-0.374211 0.263160 0.053787 0.859971 0.180391 -0.477398
-0.364737 0.247132 0.060000 0.552775 0.749397 -0.364479
-0.364737 0.263160 0.056969 0.939572 0.315542 -0.132807
-0.355263 0.263160 0.055559 0.873562 0.235940 0.425701
-0.355263 0.249339 0.060000 0.488827 0.857675 0.159503
-0.336316 0.263160 0.055896 0.874676 0.449367 0.181689
-0.336316 0.244584 0.060000 0.672162 0.633813 -0.382727
-0.317368 0.244055 0.060000 0.468434 0.791388 -0.392778
-0.317368 0.263160 0.055398 0.970395 0.030536 -0.239587
-0.307895 0.263160 0.054167 0.959885 0.104180 -0.260322
-0.307895 0.245287 0.060000 0.620889 0.752514 -0.219590
-0.299713 0.263160 0.060000 0.349704 0.679512 -0.644958
-0.288947 0.263160 0.058876 0.577253 0.733015 0.359818
-0.288947 0.251206 0.060000 0.765599 0.616956 0.182272
-0.294259 0.263160 0.060000 0.628369 0.737592 0.247206
-0.279474 0.263160 0.054860 0.867404 0.424512 -0.259614
-0.279474 0.253515 0.060000 0.595193 0.789405 -0.150281
-0.270807 0.263160 0.060000 0.326458 0.819742 -0.470582
-0.251053 0.263160 0.058581 0.735415 0.677184 -0.024226
-0.254065 0.263160 0.060000 0.658921 0.646594 0.384369
-0.249005 0.263160 0.060000 0.477946 0.452402 -0.752927
-0.156316 0.262412 0.060000 0.444334 -0.447854 0.775883
-0.156795 0.263160 0.060000 0.123926 -0.272803 0.954055
-0.146842 0.263160 0.056203 0.233455 0.852088 -0.468449
-0.142224 0.263160 0.060000 0.497321 0.177770 -0.849159
-0.127895 0.255876 0.060000 0.649336 -0.561526 0.512885
-0.118421 0.254107 0.060000 0.203774 -0.409932 -0.889062
-0.118421 0.263160 0.056364 0.772543 -0.403710 -0.490098
-0.122865 0.263160 0.060000 0.401498 0.330244 0.854247
-0.116418 0.263160 0.060000 0.051315 -0.077199 -0.995694
-0.071053 0.263160 0.053884 0.130434 -0.520079 0.844100
-0.073981 0.263160 0.060000 0.010510 -0.368981 0.929377
0.213158 0.263160 0.056921 -0.371859 -0.096151 -0.923296
0.211424 0.263160 0.060000 -0.294224 -0.286074 -0.911918
0.213158 0.259221 0.060000 -0.209168 -0.456554 -0.864758
-0.402123 0.284212 0.060000 0.259155 -0.573410 0.777200
-0.383684 0.284212 0.056524 0.963784 -0.262688 -0.045985
-0.374211 0.284212 0.055382 0.985598 -0.087260 -0.144852
-0.364737 0.284212 0.057177 0.800300 -0.572031 -0.179722
-0.355263 0.284212 0.059458 0.966637 -0.076990 0.244305
-0.326842 0.284212 0.055499 0.954228 0.005712 -0.299027
-0.317368 0.284212 0.056557 0.978449 -0.023275 0.205172
-0.298421 0.265303 0.060000 0.436200 0.861724 -0.259154
-0.270000 0.264277 0.060000 0.449908 0.814856 -0.365504
-0.260526 0.266579 0.060000 0.395200 0.918393 0.019275
-0.241579 0.268553 0.060000 0.052248 0.967988 -0.245498
-0.232105 0.275541 0.060000 -0.008567 0.984451 -0.175448
-0.222632 0.284212 0.054567 0.487759 0.790102 -0.371255
-0.222632 0.274555 0.060000 -0.017974 0.992310 -0.122463
-0.216897 0.284212 0.060000 0.010545 0.536536 -0.843812
-0.194211 0.274645 0.060000 0.038238 0.982263 0.183567
-0.197739 0.284212 0.060000 -0.106179 0.376465 0.920326
-0.186174 0.284212 0.060000 0.186335 0.773645 -0.605601
-0.175263 0.277004 0.060000 0.264894 0.962749 -0.054282
-0.182196 0.284212 0.060000 0.095123 0.868686 0.486144
-0.170032 0.284212 0.060000 0.166787 0.879349 -0.446012
-0.156316 0.265036 0.060000 -0.010227 -0.637467 0.770410
-0.146842 0.284212 0.054398 -0.062199 0.911101 0.407463
-0.151213 0.284212 0.060000 0.268531 0.678477 0.683783
-0.137369 0.270356 0.060000 0.318934 0.917694 -0.236894
-0.127895 0.268458 0.060000 0.220024 0.966495 0.132200
-0.114279 0.284212 0.060000 -0.495833 0.455666 -0.739268
-0.071053 0.271778 0.060000 0.021500 -0.685569 0.727690
-0.065263 0.284212 0.060000 0.024171 -0.094315 0.995249
0.213158 0.284212 0.059086 -0.354736 -0.203762 -0.912493
0.212364 0.284212 0.060000 -0.365181 -0.261089 -0.893574
-0.393158 0.305265 0.057819 0.636055 -0.605888 0.477844
-0.396007 0.305265 0.060000 0.446328 -0.500882 0.741558
-0.385500 0.305265 0.060000 0.534663 -0.761050 -0.367338
-0.383684 0.303730 0.060000 0.734685 -0.664911 -0.134653
-0.382189 0.305265 0.060000 0.138314 -0.700412 0.700208
-0.364737 0.297184 0.060000 0.711885 -0.627658 -0.315065
-0.369164 0.305265 0.060000 0.213561 -0.626482 -0.749608
-0.358905 0.305265 0.060000 0.124773 -0.749871 0.649712
-0.355263 0.305265 0.058370 0.709816 -0.668589 0.221697
-0.345789 0.305265 0.059046 0.970398 0.236484 0.049024
-0.336316 0.305265 0.055448 0.972533 0.140701 0.185427
-0.326842 0.305265 0.056648 0.938196 0.344093 0.037256
-0.317368 0.305265 0.055830 0.855492 0.348809 0.382710
-0.232105 0.305265 0.059689 -0.674305 -0.163979 -0.720017
-0.232297 0.305265 0.060000 -0.383724 0.157606 -0.909899
-0.232105 0.304493 0.060000 -0.397546 -0.517942 -0.757425
-0.222632 0.301875 0.060000 -0.880046 -0.474570 -0.017376
-0.222632 0.305265 0.058943 -0.817801 0.565704 0.105739
-0.219195 0.305265 0.060000 -0.799816 0.440254 0.408009
-0.213158 0.298088 0.060000 -0.762915 -0.207043 -0.612449
-0.203684 0.305265 0.055608 -0.993996 0.109336 0.004260
-0.211545 0.305265 0.060000 -0.548134 0.187699 -0.815057
-0.196931 0.305265 0.060000 -0.432555 0.000775 0.901607
-0.184737 0.291416 0.060000 -0.097762 0.909737 -0.403511
-0.165790 0.288598 0.060000 0.089892 0.970337 -0.224421
-0.156316 0.289047 0.060000 0.003991 0.988100 0.153763
-0.110797 0.305265 0.060000 -0.353874 0.148467 -0.923434
-0.099474 0.305265 0.054752 -0.913051 0.029815 -0.406754
-0.071053 0.305265 0.058594 0.247542 -0.048122 0.967681
-0.071053 0.303656 0.060000 0.115491 0.194330 0.974114
-0.071357 0.305265 0.060000 0.077866 -0.230646 0.969917
0.209428 0.305265 0.060000 -0.264923 -0.238538 -0.934299
-0.393158 0.312352 0.060000 0.519692 -0.845494 0.122720
-0.374211 0.314827 0.060000 0.112510 -0.987806 -0.107617
-0.355263 0.309473 0.060000 0.104537 -0.944225 0.312268
-0.348426 0.326318 0.060000 -0.145621 -0.312481 0.938696
-0.232105 0.306511 0.060000 -0.691483 0.498915 -0.522432
-0.222632 0.308327 0.060000 -0.528364 0.832679 0.165763
-0.208368 0.326318 0.060000 -0.428618 0.079331 -0.899996
-0.199424 0.326318 0.060000 -0.332377 0.254727 0.908097
-0.108947 0.326318 0.056418 -0.525326 -0.592775 -0.610451
-0.113495 0.326318 0.060000 -0.572254 -0.469126 -0.672641
-0.071053 0.307208 0.060000 0.119701 -0.414626 0.902085
-0.065576 0.326318 0.060000 -0.183597 -0.523207 0.832194
-0.052105 0.326318 0.057319 0.574743 -0.271656 0.771928
0.204215 0.326318 0.060000 -0.538796 -0.122569 -0.833472
-0.412105 0.336988 0.060000 -0.175367 0.868967 0.462756
-0.414953 0.347370 0.060000 0.095444 -0.436200 0.894774
-0.402632 0.337319 0.060000 0.026386 0.983478 -0.179094
-0.394459 0.347370 0.060000 0.139338 0.268951 -0.953022
-0.383684 0.341603 0.060000 0.180740 0.932212 0.313551
-0.390342 0.347370 0.060000 0.212721 -0.182254 0.959965
-0.374211 0.335966 0.060000 0.212589 0.959150 -0.186649
-0.368802 0.347370 0.060000 0.266473 0.103150 -0.958307
-0.352887 0.347370 0.060000 0.223619 -0.701554 0.676621
-0.203684 0.347370 0.058025 -0.864222 0.447795 0.229348
-0.209354 0.347370 0.060000 -0.690233 0.506099 -0.517148
-0.201749 0.347370 0.060000 -0.356234 0.339638 0.870485
-0.118103 0.347370 0.060000 -0.506030 -0.461468 -0.728684
-0.061579 0.347370 0.059828 0.550663 0.182244 0.814590
-0.061663 0.347370 0.060000 -0.075955 0.064282 0.995037
-0.052105 0.347370 0.057153 0.119859 0.159463 0.979901
0.204486 0.347370 0.060000 -0.530982 -0.201033 -0.823191
-0.412105 0.351310 0.060000 0.087607 -0.932010 0.351684
-0.402632 0.355605 0.060000 0.033882 -0.998061 -0.052221
-0.383684 0.351174 0.060000 0.017671 -0.980896 0.193727
-0.374211 0.358201 0.060000 0.142245 -0.988762 -0.046008
-0.345789 0.362999 0.060000 0.045444 -0.758829 0.649703
-0.345789 0.368423 0.055183 -0.174236 -0.089999 0.980583
-0.336803 0.368423 0.060000 -0.000818 -0.785940 0.618302
-0.203684 0.354536 0.060000 -0.560380 0.752920 0.345088
-0.118421 0.368423 0.056437 -0.687358 -0.517697 -0.509440
-0.125068 0.368423 0.060000 -0.671961 -0.446350 -0.590965
-0.118421 0.348523 0.060000 -0.565170 -0.465388 -0.681173
-0.065815 0.368423 0.060000 -0.122844 -0.371667 0.920203
0.203684 0.368423 0.056466 -0.494737 0.105388 -0.862629
0.200744 0.368423 0.060000 -0.613810 -0.192063 -0.765734
0.203684 0.351644 0.060000 -0.571684 -0.298635 -0.764195
-0.355263 0.389475 0.057943 0.678746 -0.021517 0.734058
-0.355263 0.386208 0.060000 -0.029578 0.800305 0.598863
-0.357552 0.389475 0.060000 0.057348 0.019077 0.998172
-0.345789 0.374509 0.060000 0.001863 0.800061 0.599916
-0.137369 0.389475 0.055674 -0.878903 -0.280136 -0.386075
-0.141928 0.389475 0.060000 -0.365344 -0.319106 -0.874468
-0.137369 0.373831 0.060000 -0.733912 -0.482764 -0.477820
-0.127895 0.375677 0.060000 -0.708030 -0.666340 -0.233846
-0.127895 0.389475 0.055481 -0.790747 -0.416204 -0.448880
-0.061579 0.377986 0.060000 -0.056647 -0.773602 0.631135
-0.052105 0.389475 0.056125 0.028999 -0.085490 0.995917
-0.054923 0.389475 0.060000 -0.431676 0.019473 0.901818
0.203684 0.389475 0.058531 -0.917756 0.013238 -0.396924
0.195202 0.389475 0.060000 -0.816689 0.401346 -0.414657
-0.355263 0.410528 0.054615 -0.604118 0.152084 0.782248
-0.355263 0.403514 0.060000 -0.018902 -0.155998 0.987576
-0.352467 0.410528 0.060000 0.039500 -0.064914 0.997109
-0.146842 0.410528 0.057410 -0.019292 0.766824 -0.641567
-0.147491 0.410528 0.060000 -0.086734 0.258216 -0.962186
-0.146842 0.407567 0.060000 -0.369285 0.356911 -0.858046
-0.137369 0.407883 0.060000 -0.866522 -0.241314 -0.436930
-0.141620 0.410528 0.060000 -0.832567 0.070289 0.549447
-0.127895 0.410528 0.056117 -0.972418 -0.193112 -0.130808
-0.136340 0.410528 0.060000 -0.639704 -0.135270 -0.756625
-0.118421 0.410528 0.054659 -0.960269 0.030160 -0.277442
-0.099474 0.410528 0.053878 -0.637374 0.770551 -0.002233
-0.061579 0.408624 0.060000 -0.412827 0.640839 0.647225
-0.062718 0.410528 0.060000 -0.490791 0.627342 0.604621
0.203684 0.410528 0.059281 -0.851413 0.040484 -0.522931
0.201492 0.410528 0.060000 -0.798891 0.077880 -0.596412
-0.355263 0.431581 0.054573 -0.199192 -0.182371 0.962841
-0.354762 0.431581 0.060000 -0.618678 -0.032530 0.784971
-0.146842 0.414384 0.060000 -0.332952 0.473161 -0.815636
