ply
format ascii 1.0
element vertex 834
property float x
property float y
property float z
property float nx
property float ny
property float nz
end_header
-0.203684 -0.010525 -0.057046 -0.697381 0.130255 -0.704765
-0.210578 -0.010525 -0.053684 -0.875977 -0.141903 -0.461007
0.184737 -0.020921 -0.053684 -0.835273 0.120426 0.536485
0.181959 -0.010525 -0.053684 -0.678253 -0.067344 0.731736
-0.216829 0.010528 -0.053684 -0.649775 0.156851 -0.743767
-0.213158 -0.004313 -0.053684 -0.765834 -0.381034 -0.517987
0.184737 0.003793 -0.053684 -0.866381 -0.249958 0.432326
0.184737 0.010528 -0.056063 -0.544726 0.762572 0.348938
0.193533 0.010528 -0.053684 -0.829062 0.547593 0.113129
-0.213158 0.031580 -0.054080 -0.313845 0.427953 -0.847560
-0.213393 0.031580 -0.053684 -0.357381 0.431501 -0.828303
0.108947 0.031580 -0.054982 -0.209732 0.372542 0.904005
0.109052 0.031580 -0.053684 -0.078587 0.978668 0.189823
0.118421 0.029793 -0.053684 -0.260591 0.767927 -0.585132
0.119311 0.031580 -0.053684 -0.247291 -0.068103 -0.966545
0.137368 0.031580 -0.058195 -0.510906 0.102978 0.853447
0.156316 0.031580 -0.055575 -0.518155 0.647541 0.558754
0.158178 0.031580 -0.053684 -0.295613 0.534085 0.792065
0.165789 0.014833 -0.053684 -0.274740 0.806617 0.523342
0.175263 0.014469 -0.053684 -0.431535 0.901679 0.027437
0.184737 0.013032 -0.053684 -0.577754 0.809257 0.106320
-0.213158 0.032948 -0.053684 -0.522363 0.372979 -0.766827
-0.203684 0.052633 -0.055420 -0.166817 0.432681 -0.885979
-0.204136 0.052633 -0.053684 -0.766144 0.132772 -0.628804
0.118421 0.042822 -0.053684 -0.124196 -0.382230 -0.915683
0.137368 0.052633 -0.057616 -0.288464 0.480094 0.828431
0.146842 0.038098 -0.053684 -0.204482 0.951802 0.228603
0.140357 0.052633 -0.053684 -0.176314 0.537646 0.824530
0.156316 0.041433 -0.053684 -0.743882 0.550187 0.379386
-0.203684 0.073686 -0.055899 -0.264528 0.104094 -0.958744
-0.205416 0.073686 -0.053684 -0.615461 0.058305 -0.786008
0.118421 0.073686 -0.054048 -0.884198 0.313856 -0.345961
0.137368 0.059701 -0.053684 0.063023 0.413767 0.908199
0.135024 0.073686 -0.053684 -0.151320 0.432555 0.888819
-0.203684 0.094738 -0.056300 -0.282813 -0.141845 -0.948629
-0.204796 0.094738 -0.053684 -0.680626 -0.148449 -0.717434
0.108947 0.081859 -0.053684 0.066097 0.720162 0.690650
0.105599 0.094738 -0.053684 -0.242837 0.228996 0.942651
0.118421 0.079579 -0.053684 -0.565208 0.584805 -0.581845
0.127895 0.091568 -0.053684 -0.009937 0.725673 0.687968
-0.211823 0.115791 -0.053684 -0.911060 0.308301 -0.273716
0.099474 0.115791 -0.059714 -0.654952 0.462195 0.597840
0.103137 0.115791 -0.053684 -0.389761 0.256549 0.884460
-0.203684 0.136844 -0.056020 -0.528236 0.299038 -0.794697
-0.206295 0.136844 -0.053684 -0.657140 0.238498 -0.715042
0.090000 0.131393 -0.053684 -0.558403 0.502344 0.660179
0.088731 0.136844 -0.053684 -0.383118 -0.019910 0.923485
0.099474 0.135800 -0.053684 -0.005617 0.943228 0.332099
-0.203684 0.152828 -0.053684 -0.623126 0.282167 -0.729449
-0.202900 0.157896 -0.053684 -0.497602 0.224547 -0.837837
0.090000 0.143223 -0.053684 -0.336799 -0.521833 0.783745
0.098724 0.157896 -0.053684 -0.242987 -0.652011 0.718219
-0.205240 0.178949 -0.053684 -0.620238 0.222418 -0.752220
-0.203684 0.167824 -0.053684 -0.809832 -0.047848 -0.584707
0.099474 0.161623 -0.053684 -0.321643 -0.440126 0.838353
0.108947 0.175211 -0.053684 -0.057932 -0.968351 0.242776
0.108947 0.178949 -0.058053 -0.131492 -0.971077 0.199297
0.118421 0.178765 -0.053684 -0.011701 -0.997724 -0.066403
0.127895 0.174097 -0.053684 -0.078457 -0.991599 -0.102841
0.137368 0.174273 -0.053684 -0.053462 -0.986410 0.155359
0.146842 0.178949 -0.055075 0.002877 -0.996480 -0.083778
0.146114 0.178949 -0.053684 -0.197878 -0.925276 0.323587
0.147182 0.178949 -0.053684 -0.071119 -0.878014 -0.473322
0.156316 0.171849 -0.053684 -0.165534 -0.975072 -0.147761
0.165789 0.173895 -0.053684 -0.080157 -0.995149 0.057034
0.175263 0.173935 -0.053684 -0.119108 -0.983461 0.136445
0.182090 0.178949 -0.053684 -0.200200 -0.738743 0.643567
0.203684 0.178949 -0.055822 -0.715990 -0.646103 0.264404
0.201015 0.178949 -0.053684 -0.538622 -0.440933 -0.717959
0.203684 0.176175 -0.053684 -0.440267 -0.894764 -0.074585
0.205632 0.178949 -0.053684 -0.479775 -0.447150 0.754899
-0.203684 0.184528 -0.053684 -0.359632 0.472381 -0.804687
-0.199346 0.200001 -0.053684 -0.756781 0.219614 -0.615672
0.146842 0.180762 -0.053684 -0.445326 -0.759488 -0.474197
0.177411 0.200001 -0.053684 -0.344404 -0.343370 0.873775
0.203684 0.192746 -0.053684 -0.839027 0.446212 0.311334
-0.271943 0.221054 -0.053684 -0.220327 -0.291763 -0.930769
-0.270000 0.201267 -0.053684 -0.611008 -0.788134 0.074262
-0.265451 0.221054 -0.053684 -0.538564 -0.571029 0.619576
-0.253637 0.221054 -0.053684 -0.463268 -0.701390 -0.541696
-0.251053 0.217932 -0.053684 -0.436997 -0.839288 -0.323465
-0.241579 0.213549 -0.053684 -0.232471 -0.916157 0.326517
-0.237423 0.221054 -0.053684 -0.246239 -0.633999 0.733084
-0.194211 0.221054 -0.054314 -0.625097 0.213133 -0.750884
-0.197112 0.221054 -0.053684 -0.930624 0.131343 -0.341597
0.184737 0.216107 -0.053684 -0.317619 -0.886516 0.336464
0.194210 0.212488 -0.053684 -0.382986 -0.913384 -0.138027
0.203684 0.206619 -0.053684 -0.493923 -0.762447 0.417990
0.203684 0.221054 -0.056300 -0.444977 -0.671276 0.592777
0.206708 0.221054 -0.053684 -0.416491 -0.502692 0.757520
-0.298421 0.242107 -0.059363 0.396560 -0.838646 -0.373379
-0.288947 0.242107 -0.059050 0.557081 -0.807368 -0.194470
-0.279474 0.242107 -0.057282 0.681105 -0.280527 -0.676314
-0.276105 0.242107 -0.053684 0.094810 -0.144510 -0.984951
-0.260526 0.226755 -0.053684 -0.263170 -0.949358 0.171642
-0.232105 0.237829 -0.053684 0.088380 -0.764800 0.638177
-0.222632 0.242107 -0.055046 0.637985 -0.751976 0.165851
-0.227673 0.242107 -0.053684 -0.180600 -0.909667 0.374018
-0.213158 0.242107 -0.054128 0.688491 -0.720836 -0.079849
-0.203684 0.242107 -0.054583 0.863138 -0.489828 0.122728
-0.194211 0.226767 -0.053684 -0.686430 0.233273 -0.688765
-0.194211 0.242107 -0.057123 0.780900 -0.533238 -0.325351
-0.192627 0.242107 -0.053684 -0.323936 0.067061 -0.943699
0.184737 0.242107 -0.057694 -0.987801 -0.092602 0.125194
0.212646 0.242107 -0.053684 -0.526320 -0.608751 0.593641
0.223077 0.242107 -0.053684 -0.451674 -0.757038 -0.472106
0.232105 0.233507 -0.053684 -0.596205 -0.795961 -0.104813
0.241579 0.233349 -0.053684 -0.375467 -0.926822 0.005022
0.251052 0.233859 -0.053684 -0.382860 -0.922248 -0.053628
0.260526 0.228678 -0.053684 -0.346815 -0.904710 0.247426
0.266890 0.242107 -0.053684 -0.145208 -0.573808 0.806015
-0.317368 0.263160 -0.059020 0.712127 0.131446 -0.689635
-0.307895 0.263160 -0.053747 0.943693 0.293064 -0.153484
-0.298421 0.263160 -0.057568 0.924955 -0.149417 -0.349477
-0.293209 0.263160 -0.053684 -0.506294 0.416146 -0.755307
-0.288947 0.255516 -0.053684 -0.834276 -0.525767 0.165989
-0.286155 0.263160 -0.053684 -0.192643 -0.038370 0.980518
-0.272249 0.263160 -0.053684 -0.396113 -0.098526 -0.912900
-0.222632 0.245603 -0.053684 0.082456 -0.994450 0.065344
-0.213158 0.242848 -0.053684 -0.621314 -0.782533 -0.040146
-0.203684 0.245805 -0.053684 -0.298742 -0.938391 0.173710
-0.194211 0.257938 -0.053684 -0.654779 -0.691469 -0.305181
0.194210 0.263160 -0.057482 -0.752741 -0.475224 0.455569
0.202800 0.263160 -0.053684 -0.832589 -0.078546 0.548294
0.203684 0.261481 -0.053684 -0.834687 -0.474940 -0.278800
0.213158 0.242760 -0.053684 -0.522737 -0.809397 0.267624
0.209110 0.250605 -0.055015 -0.834819 -0.540659 -0.103759
0.204122 0.263160 -0.053684 -0.428630 -0.495855 -0.755251
0.222631 0.243129 -0.053684 -0.851347 -0.500060 -0.158583
0.270000 0.259536 -0.053684 -0.195724 -0.423627 0.884439
0.270000 0.263160 -0.055545 -0.374702 -0.194490 0.906516
0.273199 0.263160 -0.053684 -0.501811 -0.567948 0.652396
-0.288947 0.267051 -0.053684 -0.088571 0.991730 0.092879
-0.279474 0.284212 -0.058169 0.601341 0.139999 -0.786631
-0.274275 0.284212 -0.053684 0.207754 -0.168297 -0.963595
0.099474 0.284212 -0.057897 -0.908899 0.408937 -0.081691
0.203684 0.265524 -0.053684 -0.824751 -0.565439 0.008031
0.270000 0.284212 -0.056489 -0.381013 -0.057301 0.922792
0.274656 0.284212 -0.053684 -0.809199 0.060370 0.584425
0.380776 0.284212 -0.053684 0.002270 0.164939 -0.986301
0.383684 0.279307 -0.053684 0.019844 -0.999620 -0.019118
0.386587 0.284212 -0.053684 0.049042 0.013841 0.998701
0.412105 0.284212 -0.058202 -0.278985 -0.617247 -0.735645
0.408961 0.284212 -0.053684 -0.302773 -0.117289 -0.945818
0.412105 0.280073 -0.053684 -0.174837 -0.926883 -0.332143
-0.308986 0.305265 -0.053684 0.088663 0.164056 -0.982458
-0.307895 0.303060 -0.053684 -0.149053 -0.539651 -0.828589
-0.298421 0.305265 -0.058497 0.340563 -0.541367 0.768725
-0.301436 0.305265 -0.053684 -0.386665 -0.391764 0.834872
-0.280510 0.305265 -0.053684 -0.176879 -0.313016 -0.933132
-0.279474 0.302779 -0.053684 -0.492076 -0.428751 -0.757650
0.203684 0.305265 -0.056656 -0.940912 -0.215251 0.261442
0.270000 0.305265 -0.058120 -0.339681 -0.332761 0.879708
0.273204 0.305265 -0.053684 -0.034824 -0.005301 0.999379
0.383684 0.291825 -0.053684 -0.073586 0.966360 -0.246442
0.383684 0.305265 -0.059877 0.618537 -0.239772 -0.748279
0.412105 0.305265 -0.055883 0.444435 -0.774053 -0.450909
0.412105 0.300529 -0.053684 -0.420084 0.676661 -0.604697
-0.307895 0.312364 -0.053684 0.327466 0.793512 -0.512937
-0.298421 0.326318 -0.059969 0.723042 -0.232401 0.650538
-0.279474 0.321343 -0.053684 -0.862341 0.372902 -0.342509
-0.279474 0.326318 -0.054060 0.665004 -0.728659 -0.163785
-0.270000 0.326318 -0.055390 0.613814 -0.727343 -0.306928
-0.270000 0.317572 -0.053684 -0.096284 0.627045 -0.773009
-0.267939 0.326318 -0.053684 0.043320 -0.477765 -0.877419
-0.222632 0.326318 -0.054151 0.880857 -0.292310 0.372352
-0.222632 0.325682 -0.053684 0.337328 0.870250 0.358992
-0.225262 0.326318 -0.053684 0.189937 -0.963981 0.186182
-0.213158 0.326318 -0.056351 0.917544 -0.348715 -0.191075
-0.213158 0.312486 -0.053684 0.233549 0.966738 0.104274
-0.208754 0.326318 -0.053684 0.375221 -0.163437 -0.912413
0.276269 0.326318 -0.053684 -0.014779 -0.198912 0.979906
0.336316 0.326318 -0.054288 0.575625 0.191417 -0.794994
0.338612 0.326318 -0.053684 0.186634 -0.878742 -0.439295
0.345789 0.324824 -0.053684 -0.101160 -0.981928 -0.159953
0.355263 0.319228 -0.053684 -0.071835 -0.997416 -0.001223
0.364737 0.323211 -0.053684 -0.001625 -0.940108 0.340872
0.374210 0.326318 -0.058371 0.928880 0.334510 0.159011
0.367976 0.326318 -0.053684 -0.251087 -0.319503 0.913714
0.379236 0.326318 -0.053684 -0.136688 -0.476717 -0.868365
0.383684 0.317872 -0.053684 -0.018673 -0.963846 -0.265803
0.393158 0.320331 -0.053684 -0.098339 -0.977094 -0.188726
0.402631 0.312883 -0.053684 0.006398 -0.964921 -0.262463
0.412105 0.307603 -0.053684 -0.176210 -0.955057 -0.238362
-0.315562 0.347370 -0.053684 -0.268265 -0.445199 -0.854302
-0.307895 0.332492 -0.053684 -0.107456 -0.930741 -0.349534
-0.298421 0.340291 -0.053684 -0.131008 -0.987895 -0.083068
-0.288947 0.331406 -0.053684 -0.390349 -0.884963 -0.253905
-0.279474 0.326672 -0.053684 -0.146473 -0.985522 -0.085391
-0.270000 0.329652 -0.053684 -0.114767 -0.974940 -0.190577
-0.222632 0.326707 -0.053684 0.117434 -0.970042 0.212669
-0.213158 0.336553 -0.053684 0.375271 -0.871532 -0.315601
0.276861 0.347370 -0.053684 -0.068158 -0.003975 0.997667
0.345789 0.335918 -0.053684 0.141534 0.807793 -0.572222
0.355263 0.339115 -0.053684 -0.257033 0.966233 0.018116
0.364737 0.347370 -0.057288 0.199355 0.743299 0.638564
0.364737 0.336675 -0.053684 -0.196165 0.820602 0.536779
0.381261 0.347370 -0.053684 -0.279798 0.518249 -0.808165
0.402631 0.344639 -0.053684 -0.194588 0.980554 0.025481
0.400422 0.347370 -0.053684 -0.064069 0.648725 0.758322
0.412105 0.347370 -0.055968 -0.088043 0.995845 -0.023249
0.408297 0.347370 -0.053684 -0.264471 0.928956 -0.259030
0.414576 0.347370 -0.053684 0.015524 0.931417 0.363622
-0.316007 0.368423 -0.053684 -0.100643 -0.396071 -0.912688
-0.213158 0.368423 -0.059802 0.571579 -0.797965 -0.191179
-0.213158 0.354407 -0.053684 0.285156 0.954850 0.083350
-0.219708 0.368423 -0.053684 0.012986 -0.269071 0.963033
-0.206861 0.368423 -0.053684 0.067516 -0.047433 -0.996590
0.274162 0.368423 -0.053684 0.046828 -0.176297 0.983223
0.364737 0.368423 -0.059852 0.859703 -0.009304 0.510710
0.383684 0.352767 -0.053684 -0.175523 0.899316 -0.400527
0.393158 0.355025 -0.053684 0.048785 0.990550 0.128185
0.412105 0.350255 -0.053684 -0.089832 0.993825 0.065132
-0.323109 0.389475 -0.053684 -0.114821 -0.041767 -0.992508
-0.317368 0.372852 -0.053684 -0.263637 -0.589427 -0.763591
-0.232105 0.389475 -0.053717 0.662016 0.288096 -0.691908
-0.232105 0.389233 -0.053684 0.713014 0.472240 -0.518267
-0.232331 0.389475 -0.053684 0.672998 0.719612 0.170973
-0.232081 0.389475 -0.053684 0.416397 -0.140229 -0.898303
-0.213158 0.380429 -0.053684 0.194220 -0.948668 -0.249617
0.279473 0.383563 -0.053684 0.229660 -0.439399 0.868438
0.281256 0.389475 -0.053684 0.412638 0.167206 0.895417
0.381721 0.389475 -0.053684 -0.236704 -0.098809 -0.966544
0.383684 0.385179 -0.053684 -0.459589 -0.815006 -0.352907
0.391953 0.389475 -0.053684 -0.757808 -0.319863 0.568696
0.412105 0.389475 -0.056902 -0.571415 -0.242613 0.783979
0.406695 0.389475 -0.053684 -0.364118 -0.573864 -0.733552
0.412105 0.383554 -0.053684 -0.413901 -0.826965 0.380546
0.413662 0.389475 -0.053684 -0.340850 -0.199014 0.918811
-0.317368 0.401086 -0.053684 -0.159440 0.720561 -0.674812
-0.312798 0.410528 -0.053684 -0.063995 -0.081135 -0.994646
-0.236649 0.410528 -0.053684 0.339757 -0.201169 0.918747
-0.223029 0.410528 -0.053684 0.601913 -0.423865 -0.676786
0.279473 0.396905 -0.053684 0.306289 0.547481 0.778750
0.273421 0.410528 -0.053684 -0.273146 0.313442 0.909475
0.383684 0.405772 -0.053684 0.261312 0.901426 -0.345178
0.412105 0.410528 -0.059287 -0.136359 0.764156 0.630453
0.407762 0.410528 -0.053684 -0.206230 0.496138 -0.843396
0.414443 0.410528 -0.053684 -0.165375 0.216868 0.962091
-0.326842 0.431581 -0.055264 -0.391572 -0.667110 -0.633747
-0.327003 0.431581 -0.053684 -0.079353 -0.295433 -0.952062
-0.326842 0.431289 -0.053684 -0.203469 -0.775317 -0.597900
-0.317368 0.423677 -0.053684 -0.049442 -0.784456 -0.618211
-0.317368 0.431581 -0.057162 -0.432772 -0.570536 -0.697995
-0.232105 0.422002 -0.053684 0.402765 -0.888998 -0.217858
0.274737 0.431581 -0.053684 -0.062810 0.125610 0.990089
0.412105 0.418679 -0.053684 -0.377115 0.843227 -0.383083
-0.331327 0.452633 -0.053684 0.068566 0.647852 -0.758674
0.270000 0.452633 -0.055717 0.221721 0.808208 0.545564
0.270000 0.450778 -0.053684 0.495210 0.330889 0.803293
0.268847 0.452633 -0.053684 0.191769 0.856930 0.478430
0.412105 0.452633 -0.058595 -0.531611 0.777014 -0.337102
0.406987 0.452633 -0.053684 -0.557296 -0.264802 -0.786957
0.412105 0.445276 -0.053684 -0.552754 -0.799084 -0.236489
0.415995 0.452633 -0.053684 -0.544847 0.561251 0.623008
-0.326842 0.457482 -0.053684 -0.016341 0.966495 -0.256164
-0.317368 0.459193 -0.053684 0.050968 0.936109 -0.347996
-0.310641 0.473686 -0.053684 -0.031812 0.622498 -0.781975
-0.288947 0.473686 -0.054103 0.687933 0.688972 -0.228180
-0.288947 0.472566 -0.053684 0.358199 0.899442 -0.250397
-0.295375 0.473686 -0.053684 0.288525 0.955371 0.063397
-0.288239 0.473686 -0.053684 0.266802 0.807671 -0.525818
-0.232105 0.473686 -0.057052 0.607417 0.034847 -0.793619
-0.232105 0.460341 -0.053684 0.854516 0.285430 -0.433972
-0.238796 0.473686 -0.053684 0.602807 0.563767 0.564615
-0.230782 0.473686 -0.053684 0.306068 -0.081012 -0.948556
0.090000 0.462245 -0.053684 0.723440 0.682102 0.106632
0.087193 0.473686 -0.053684 0.242444 -0.207365 0.947745
0.093499 0.473686 -0.053684 0.310741 -0.160883 -0.936780
0.108947 0.473686 -0.054710 0.737479 -0.374470 0.562048
0.108947 0.471097 -0.053684 0.719592 0.508106 0.473302
0.107847 0.473686 -0.053684 0.431394 -0.181144 0.883791
0.111680 0.473686 -0.053684 0.729161 -0.234339 -0.642970
0.232105 0.473686 -0.056173 0.289222 0.952344 -0.096909
0.232105 0.462819 -0.053684 -0.069401 0.960696 -0.268788
0.225136 0.473686 -0.053684 -0.016181 0.910507 0.413176
0.237340 0.473686 -0.053684 -0.166853 0.913930 -0.369990
0.251052 0.473686 -0.056162 0.565084 0.822264 0.067546
0.251052 0.467448 -0.053684 0.183008 0.976219 0.116206
0.244704 0.473686 -0.053684 0.093919 0.892618 0.440921
0.260526 0.473686 -0.055452 0.208704 0.832327 0.513492
0.260526 0.471640 -0.053684 0.157372 0.910624 0.382097
0.412105 0.457330 -0.053684 -0.373564 0.927290 0.024170
-0.307895 0.481059 -0.053684 0.016650 0.930294 -0.366436
-0.298421 0.474017 -0.053684 0.174913 0.971339 0.160954
-0.279474 0.494739 -0.059042 0.319187 0.939268 0.126081
-0.279474 0.491572 -0.053684 0.165034 0.974454 0.152327
-0.270000 0.479563 -0.053684 0.301511 0.946317 -0.116513
-0.260526 0.487947 -0.053684 0.111014 0.958203 -0.263671
-0.251053 0.494739 -0.056007 0.078726 0.996477 0.028914
-0.251053 0.491465 -0.053684 0.059193 0.995225 -0.077608
-0.241579 0.481618 -0.053684 0.524116 0.610316 0.593984
-0.222632 0.494739 -0.058224 0.335397 0.926786 -0.169044
-0.222632 0.490738 -0.053684 0.384856 0.855317 -0.346869
-0.213158 0.494739 -0.058368 0.191210 0.599481 -0.777214
-0.213158 0.491923 -0.053684 0.440630 0.818331 -0.369025
-0.212343 0.494739 -0.053684 0.464097 0.142667 -0.874220
0.090000 0.480246 -0.053684 0.275150 -0.959600 0.058816
0.108947 0.476501 -0.053684 0.421596 -0.825897 0.374367
0.175263 0.494739 -0.058501 -0.289277 0.545086 0.786893
0.184737 0.494229 -0.053684 0.715150 0.681161 -0.156782
0.184203 0.494739 -0.053684 0.680761 0.585949 0.439578
0.184737 0.494739 -0.054084 0.315276 0.716337 -0.622464
0.184969 0.494739 -0.053684 0.058728 0.235419 -0.970118
0.203684 0.482334 -0.053684 -0.240386 0.872575 0.425238
0.199803 0.494739 -0.053684 -0.095430 0.423798 0.900716
0.213158 0.483053 -0.053684 -0.329385 0.930118 0.162437
0.222631 0.476230 -0.053684 -0.150991 0.924380 0.350318
0.241579 0.476713 -0.053684 -0.100209 0.991936 0.077600
-0.203684 0.512948 -0.053684 0.188858 0.876491 -0.442827
-0.197668 0.515791 -0.053684 0.171863 0.603875 -0.778331
-0.184737 0.511273 -0.053684 0.014066 0.992761 -0.119281
-0.192486 0.515791 -0.053684 0.131281 0.857464 0.497515
-0.177866 0.515791 -0.053684 0.340172 0.256808 -0.904617
-0.165790 0.507326 -0.053684 0.058938 0.994883 0.082056
-0.174468 0.515791 -0.053684 0.199021 0.453829 0.868579
-0.156316 0.509296 -0.053684 0.090172 0.991047 -0.098464
-0.146842 0.511732 -0.053684 0.003072 0.978093 -0.208146
-0.141152 0.515791 -0.053684 -0.110394 0.632058 -0.767018
0.090000 0.515791 -0.057869 0.292796 0.531710 0.794704
0.090000 0.510283 -0.053684 0.364108 0.868864 0.335411
0.086229 0.515791 -0.053684 0.458108 0.197513 0.866675
0.099474 0.509974 -0.053684 0.278086 0.958801 -0.058037
0.108947 0.515791 -0.055210 0.591815 0.765967 -0.251098
0.108947 0.514129 -0.053684 0.117392 0.987986 -0.100509
0.118421 0.515791 -0.057552 0.781466 0.396406 -0.481844
0.118421 0.511511 -0.053684 0.276906 0.955577 -0.100976
0.123965 0.515791 -0.053684 0.285262 0.817465 -0.500376
0.137368 0.515791 -0.053847 0.685512 0.710353 0.159602
0.137368 0.515453 -0.053684 0.267799 0.953609 0.137530
0.137035 0.515791 -0.053684 0.462868 0.809767 0.360598
0.138166 0.515791 -0.053684 0.313241 0.901640 -0.298204
0.156316 0.515791 -0.057455 0.917009 0.305805 -0.256082
0.156316 0.507730 -0.053684 0.327894 0.926860 0.182802
0.149477 0.515791 -0.053684 0.317824 0.192252 0.928454
0.162229 0.515791 -0.053684 0.011159 0.591143 -0.806490
0.175263 0.507516 -0.053684 0.190696 0.775252 0.602179
0.172113 0.515791 -0.053684 -0.021930 0.613063 0.789730
0.194210 0.511210 -0.053684 -0.458135 0.735068 0.499787
-0.222632 0.536844 -0.055599 0.617796 -0.157666 -0.770370
-0.219859 0.536844 -0.053684 0.656080 -0.308436 -0.688787
-0.213158 0.530469 -0.053684 0.464575 -0.828376 -0.312992
-0.203684 0.522001 -0.053684 0.469450 -0.801530 -0.370361
-0.184737 0.522042 -0.053684 0.313313 -0.945989 -0.083303
-0.165790 0.531614 -0.053684 0.484586 -0.867050 0.115762
-0.156316 0.527986 -0.053684 0.506810 -0.862033 0.006566
-0.146842 0.536355 -0.053684 0.630891 -0.761362 0.149344
0.090000 0.529454 -0.053684 0.655478 -0.755203 -0.004066
0.099474 0.523376 -0.053684 0.247997 -0.956451 -0.153942
0.108947 0.536844 -0.059849 -0.119865 -0.334819 0.934627
0.108947 0.519686 -0.053684 0.590996 -0.805985 0.033343
0.118421 0.536844 -0.058671 -0.174555 0.983413 -0.049297
0.115711 0.536844 -0.053684 0.083411 -0.205963 0.974998
0.127895 0.531711 -0.053684 0.883874 0.213894 -0.415953
0.127895 0.536844 -0.055138 0.968895 0.225403 -0.102155
0.137368 0.536844 -0.055623 0.865973 0.459556 -0.197228
0.142174 0.536844 -0.053684 0.402393 0.266730 -0.875748
0.156316 0.533262 -0.053684 0.450363 0.510886 0.732235
0.156316 0.536844 -0.055578 -0.265554 0.746502 0.610096
0.165789 0.531497 -0.053684 -0.263783 -0.953884 -0.143264
0.165789 0.536844 -0.056095 0.548872 0.768370 -0.329162
0.161053 0.536844 -0.053684 -0.160004 0.341888 0.926019
0.171534 0.536844 -0.053684 0.117154 0.841319 -0.527691
0.175263 0.530374 -0.053684 -0.133189 0.689863 0.711583
0.177092 0.536844 -0.053684 -0.189421 0.493974 0.848592
-0.213158 0.557897 -0.057511 0.599979 0.592627 -0.537419
-0.213158 0.552351 -0.053684 0.545988 0.696355 -0.465818
-0.203684 0.557897 -0.054909 0.790089 0.563071 -0.242301
-0.203684 0.554902 -0.053684 0.668159 0.733840 -0.122646
-0.198213 0.557897 -0.053684 0.833970 0.493453 -0.246980
-0.146842 0.557897 -0.059255 0.989439 0.139940 -0.037790
-0.146842 0.537113 -0.053684 0.634062 0.755064 0.166863
-0.153304 0.557897 -0.053684 0.416219 -0.040542 0.908360
-0.137369 0.557897 -0.055443 0.789800 0.566950 0.234058
-0.137369 0.551052 -0.053684 0.571540 0.794206 -0.206347
-0.127895 0.541030 -0.053684 0.438783 0.852247 -0.284858
-0.118421 0.557897 -0.054103 0.736342 0.264725 -0.622673
-0.118421 0.556372 -0.053684 0.445935 0.609211 -0.655747
-0.117563 0.557897 -0.053684 0.505566 0.169306 -0.846013
-0.099474 0.557897 -0.055244 0.893199 0.350735 -0.281389
-0.099474 0.554096 -0.053684 0.341574 0.937138 -0.071409
-0.102623 0.557897 -0.053684 0.579507 0.206111 0.788473
-0.097026 0.557897 -0.053684 0.260104 0.430071 -0.864514
-0.061579 0.557897 -0.055991 0.961663 0.182152 0.205002
-0.061579 0.553194 -0.053684 0.056695 0.954892 0.291491
-0.066192 0.557897 -0.053684 0.202952 -0.356507 0.911983
-0.052105 0.557897 -0.056314 0.983666 -0.086148 -0.158053
-0.052105 0.549735 -0.053684 0.247170 0.960759 -0.125891
-0.045358 0.557897 -0.053684 0.358337 0.577404 -0.733620
-0.033158 0.557897 -0.056032 0.954263 0.203756 0.218783
-0.033158 0.551796 -0.053684 0.269077 0.924538 0.269865
-0.038942 0.557897 -0.053684 0.595383 0.326737 0.734004
-0.023684 0.557897 -0.056616 0.941110 0.281612 0.187098
-0.023684 0.549329 -0.053684 0.258313 0.959943 0.108550
-0.014211 0.557897 -0.058697 0.982511 0.185299 -0.018359
-0.014211 0.546641 -0.053684 0.376148 0.925614 0.041859
-0.004737 0.557897 -0.057147 0.952819 -0.172405 -0.249826
-0.004737 0.548562 -0.053684 0.200546 0.958237 -0.203873
0.003866 0.557897 -0.053684 0.340183 0.656304 -0.673455
0.071052 0.557897 -0.056907 0.928249 0.288375 -0.234935
0.071052 0.552619 -0.053684 0.218164 0.929461 0.297500
0.067260 0.557897 -0.053684 0.242816 0.092907 0.965613
0.078115 0.557897 -0.053684 0.421213 0.595920 -0.683710
0.090000 0.553884 -0.053684 0.088864 0.995745 -0.024390
0.085903 0.557897 -0.053684 0.253878 0.813282 0.523562
0.095874 0.557897 -0.053684 -0.489786 0.773650 -0.401964
0.108947 0.549367 -0.053684 -0.176631 0.885142 0.430493
0.100804 0.557897 -0.053684 -0.159434 0.833824 0.528505
0.146842 0.548414 -0.053684 -0.150901 0.914800 -0.374660
0.156316 0.542080 -0.053684 -0.325996 0.883489 0.336413
0.175263 0.540405 -0.053684 0.069236 0.987278 0.143139
-0.194211 0.578949 -0.054025 0.411124 0.691821 -0.593600
-0.194211 0.574661 -0.053684 0.482865 0.499964 -0.718942
-0.193847 0.578949 -0.053684 0.392617 0.654679 -0.645947
-0.150086 0.578949 -0.053684 0.128458 -0.207505 0.969763
-0.129139 0.578949 -0.053684 0.542110 0.041768 -0.839269
-0.127895 0.577408 -0.053684 0.975933 0.195905 -0.095792
-0.118421 0.578949 -0.055783 0.823257 -0.493917 -0.279812
-0.126346 0.578949 -0.053684 0.762103 0.090662 0.641076
-0.115985 0.578949 -0.053684 0.471947 -0.019130 -0.881419
-0.103172 0.578949 -0.053684 0.392569 -0.123701 0.911366
-0.097186 0.578949 -0.053684 0.240512 -0.168448 -0.955918
-0.061579 0.563135 -0.053684 0.385890 -0.868445 0.311277
-0.052105 0.570561 -0.053684 0.542188 -0.840235 0.006110
-0.033158 0.570625 -0.053684 0.748251 -0.575091 0.330743
-0.025169 0.578949 -0.053684 0.713991 -0.601814 0.357822
-0.023684 0.578949 -0.054081 0.709687 -0.612354 0.348377
-0.014211 0.578949 -0.056415 0.796224 -0.584601 -0.155785
-0.010374 0.578949 -0.053684 0.530390 -0.467882 -0.706947
-0.004737 0.570295 -0.053684 0.720397 -0.637755 -0.272574
0.003957 0.578949 -0.053684 0.618432 -0.562007 0.549263
0.004737 0.578949 -0.054023 0.798799 -0.595735 -0.083784
0.004737 0.570899 -0.053684 0.712087 -0.611184 -0.345523
0.005378 0.578949 -0.053684 0.414150 -0.071863 -0.907367
0.071052 0.568888 -0.053684 0.022021 -0.942950 0.332204
0.080526 0.578949 -0.056079 -0.887683 0.300627 0.348772
0.090000 0.564306 -0.053684 -0.694136 -0.642167 0.325265
0.090000 0.578949 -0.055505 -0.688049 0.699751 0.192189
0.094565 0.578949 -0.053684 -0.672220 0.524423 0.522591
0.099474 0.562100 -0.053684 -0.756448 0.520807 0.395659
-0.190150 0.600002 -0.053684 0.058466 0.362839 -0.930016
-0.146842 0.598900 -0.053684 0.265355 -0.598374 0.755999
-0.146842 0.600002 -0.057639 0.125022 0.057364 0.990494
-0.137369 0.599693 -0.053684 -0.507104 -0.553128 0.660981
-0.136370 0.585280 -0.058316 0.870767 -0.471945 -0.137955
-0.127895 0.589189 -0.053684 0.845478 -0.476346 -0.241376
-0.136561 0.600002 -0.053684 -0.017844 -0.545888 0.837668
-0.118421 0.599856 -0.053684 -0.131659 0.336282 -0.932513
-0.118730 0.600002 -0.053684 -0.736305 0.555908 -0.385775
-0.099474 0.593743 -0.053684 0.918502 0.092200 -0.384517
-0.023684 0.581004 -0.053684 0.683201 -0.626226 0.375603
-0.014211 0.590962 -0.053684 0.638310 -0.728488 -0.248728
0.004737 0.583347 -0.053684 0.945477 -0.305972 -0.111601
0.052105 0.599617 -0.053684 -0.062637 0.997491 0.033002
0.051312 0.600002 -0.053684 -0.268672 0.907794 0.322064
0.054237 0.600002 -0.053684 -0.483211 0.868471 -0.110753
0.071052 0.586530 -0.053684 -0.310787 0.875783 0.369346
0.062591 0.600002 -0.053684 -0.282866 0.592989 0.753891
0.080526 0.583275 -0.053684 -0.372914 0.926726 0.045987
0.090000 0.583823 -0.053684 -0.483980 0.837607 0.253332
-0.184737 0.610839 -0.053684 -0.020859 0.735568 -0.677129
-0.180035 0.621055 -0.053684 -0.130689 -0.231742 -0.963959
-0.146842 0.621055 -0.054703 -0.011035 -0.998891 0.045762
-0.127895 0.602872 -0.053684 -0.109179 -0.992433 0.056184
-0.118421 0.600439 -0.053684 -0.072695 0.277019 -0.958111
-0.118421 0.621055 -0.059840 -0.037907 -0.948915 -0.313246
-0.120323 0.621055 -0.053684 0.037739 -0.113651 0.992804
-0.117314 0.621055 -0.053684 0.134063 0.011933 -0.990901
0.042631 0.610881 -0.053684 -0.203491 0.552317 0.808417
0.040731 0.621055 -0.053684 -0.017612 0.153925 0.987925
0.061579 0.621055 -0.054257 -0.449008 0.892123 0.050077
0.061099 0.621055 -0.053684 -0.424300 0.675431 -0.603127
0.061878 0.621055 -0.053684 -0.427111 0.401338 0.810249
-0.184737 0.642107 -0.056186 -0.519704 0.137903 -0.843143
-0.187299 0.642107 -0.053684 -0.318046 0.436600 -0.841562
-0.184737 0.635540 -0.053684 -0.135770 -0.546550 -0.826347
-0.127895 0.642107 -0.056237 0.870717 -0.465478 0.158687
-0.127895 0.632653 -0.053684 0.446319 0.623914 0.641506
-0.131486 0.642107 -0.053684 0.082997 -0.451541 0.888382
-0.118421 0.642107 -0.055306 0.553148 -0.669165 -0.496230
-0.117070 0.642107 -0.053684 -0.009552 -0.435894 -0.899947
0.036079 0.642107 -0.053684 -0.529974 0.289645 0.797015
0.061579 0.621828 -0.053684 -0.562977 0.821723 0.088477
-0.184737 0.647018 -0.053684 -0.283176 0.650950 -0.704326
-0.175263 0.663160 -0.057356 -0.488546 0.148169 -0.859865
-0.178329 0.663160 -0.053684 -0.200194 0.387277 -0.899966
-0.127895 0.648763 -0.053684 0.229601 -0.972745 0.032419
-0.118421 0.645025 -0.053684 0.255501 -0.825821 -0.502731
0.033158 0.663160 -0.055480 -0.209928 -0.213350 0.954155
0.033158 0.658430 -0.053684 -0.230868 0.332489 0.914413
0.032250 0.663160 -0.053684 -0.096660 -0.045982 0.994255
-0.177921 0.684213 -0.053684 0.005945 0.405091 -0.914257
0.033158 0.665305 -0.053684 -0.071835 -0.779953 0.621702
0.040617 0.684213 -0.053684 -0.080881 -0.395108 0.915067
0.052105 0.684213 -0.058135 -0.811979 0.143667 0.565729
0.044753 0.684213 -0.053684 -0.227394 -0.358424 -0.905442
0.052105 0.674381 -0.053684 -0.457822 -0.865801 0.201960
0.056987 0.684213 -0.053684 -0.291037 -0.307058 0.906098
-0.175263 0.691391 -0.053684 -0.110267 0.765410 -0.634026
-0.165790 0.697745 -0.053684 -0.218012 0.794495 -0.566789
-0.163354 0.705265 -0.053684 -0.312285 0.299596 -0.901510
0.039628 0.705265 -0.053684 -0.013860 -0.142254 0.989733
0.052105 0.705265 -0.054345 -0.992416 0.096916 -0.075617
0.049710 0.705265 -0.053684 -0.546336 0.297972 -0.782771
0.054525 0.705265 -0.053684 -0.730122 0.112274 0.674029
-0.156316 0.726318 -0.059729 -0.495848 -0.232015 -0.836841
-0.163314 0.726318 -0.053684 -0.642285 0.282356 -0.712563
0.033158 0.726318 -0.059949 -0.738921 -0.433797 0.515573
0.042631 0.722084 -0.053684 -0.670063 -0.203375 0.713900
0.042631 0.726318 -0.054842 -0.826501 0.063164 0.559380
0.052105 0.716439 -0.053684 -0.848185 0.206863 0.487637
0.046961 0.726318 -0.053684 -0.842256 -0.287738 0.455863
-0.161977 0.747371 -0.053684 -0.346660 -0.077478 -0.934786
0.042631 0.738475 -0.053684 -0.644693 0.011561 0.764354
0.042011 0.747371 -0.053684 -0.433363 -0.278817 0.857005
0.043748 0.747371 -0.053684 -0.503260 -0.654248 -0.564526
0.052105 0.747371 -0.057433 -0.732527 -0.218761 0.644630
0.052105 0.730069 -0.053684 -0.618205 -0.638299 0.458691
0.055760 0.747371 -0.053684 -0.428082 -0.196842 0.882043
-0.162858 0.768423 -0.053684 -0.424984 0.210154 -0.880468
0.042631 0.748974 -0.053684 -0.348346 -0.905387 0.242756
0.060479 0.768423 -0.053684 -0.524598 0.247964 0.814439
-0.156316 0.784220 -0.053684 -0.391723 0.589527 -0.706407
-0.154147 0.789476 -0.053684 -0.282665 0.570594 -0.771053
0.033158 0.789476 -0.055670 -0.480924 0.772228 0.415183
0.036634 0.789476 -0.053684 -0.498544 0.732827 0.463053
0.042631 0.782079 -0.053684 -0.609763 0.792575 0.003807
0.052105 0.789476 -0.055339 -0.476441 0.874189 0.093798
0.049260 0.789476 -0.053684 -0.453821 0.775494 -0.438927
0.053571 0.789476 -0.053684 -0.414884 0.585692 0.696302
-0.146842 0.802696 -0.053684 -0.365386 0.809517 -0.459538
-0.137369 0.810018 -0.053684 -0.244246 0.967422 -0.066630
-0.127895 0.805345 -0.053684 -0.226389 0.972997 -0.045006
-0.118421 0.810529 -0.055851 -0.136561 0.943940 -0.300546
-0.119254 0.810529 -0.053684 -0.322845 0.861946 -0.390923
-0.090000 0.810529 -0.058548 -0.511362 0.859308 0.009932
0.004737 0.810529 -0.059213 -0.533500 0.733834 0.420552
0.012155 0.810529 -0.053684 -0.488358 0.648642 0.583754
0.014210 0.807018 -0.053684 -0.488113 0.805453 0.336141
0.023684 0.803799 -0.053684 -0.471402 0.838901 0.272077
0.033158 0.793325 -0.053684 -0.485056 0.784933 0.385487
0.052105 0.792387 -0.053684 -0.457662 0.862422 0.216274
-0.118421 0.812713 -0.053684 -0.607899 0.637542 -0.473285
-0.108947 0.818633 -0.053684 -0.648241 0.734913 -0.199215
-0.099474 0.828543 -0.053684 -0.538472 0.827585 -0.158589
-0.090000 0.828325 -0.053684 -0.804764 0.585162 0.099701
-0.080526 0.822800 -0.053684 -0.611831 0.761667 -0.213368
-0.071053 0.831581 -0.055020 -0.741816 0.564874 -0.361422
-0.075037 0.831581 -0.053684 -0.623995 0.667571 -0.406176
-0.061579 0.831581 -0.058503 -0.518311 0.846571 -0.121127
-0.052105 0.831581 -0.055128 -0.740580 0.648248 -0.176962
-0.033158 0.831581 -0.058714 -0.595258 0.762903 0.252282
-0.023684 0.831581 -0.057616 -0.696674 0.710885 0.096379
-0.014211 0.831581 -0.057331 -0.679340 0.713293 0.172367
-0.005949 0.831581 -0.053684 -0.568334 0.653040 0.500534
-0.004737 0.829057 -0.053684 -0.714406 0.671271 0.197533
0.004737 0.831581 -0.053987 -0.772959 0.606316 0.186858
0.001055 0.831581 -0.053684 -0.656552 0.743197 -0.128831
0.005241 0.831581 -0.053684 -0.565404 0.517226 0.642492
0.023684 0.831581 -0.053707 -0.749128 0.662089 0.021088
0.023653 0.831581 -0.053684 -0.417401 0.711118 -0.565762
0.023684 0.831449 -0.053684 -0.856070 0.432248 -0.283383
0.023713 0.831581 -0.053684 -0.575331 0.293320 0.763517
-0.071053 0.837480 -0.053684 -0.602980 0.744126 -0.287562
-0.061579 0.838904 -0.053684 -0.495113 0.868116 0.035192
-0.052105 0.836604 -0.053684 -0.626434 0.695326 -0.352282
-0.042632 0.852634 -0.053773 -0.638203 0.762460 -0.106547
-0.042818 0.852634 -0.053684 -0.457197 0.804604 -0.378923
-0.042408 0.852634 -0.053684 -0.458545 0.825924 0.328002
-0.033158 0.843279 -0.053684 -0.557538 0.816991 0.147232
-0.023684 0.843655 -0.053684 -0.631016 0.772971 -0.065837
-0.014211 0.846435 -0.053684 -0.549590 0.769460 0.325396
0.004737 0.832817 -0.053684 -0.509152 0.778078 0.367911
0.023684 0.831625 -0.053684 -0.356703 0.923799 0.139132
-0.042632 0.852789 -0.053684 -0.338303 0.940923 0.014639
-0.329841 -0.957895 -0.047368 -0.487965 0.552472 -0.675770
-0.317368 -0.957895 -0.050327 -0.910978 0.151944 0.383449
-0.307895 -0.957895 -0.049456 -0.978999 0.197282 -0.051385
-0.298421 -0.957895 -0.051061 -0.837896 0.014523 -0.545637
-0.203684 -0.957895 -0.047884 0.678048 0.714735 0.171480
-0.203684 -0.959192 -0.047368 0.348839 0.886688 0.303471
-0.205488 -0.957895 -0.047368 0.398317 0.870476 0.289164
-0.194211 -0.957895 -0.048841 0.647595 0.696665 -0.308672
-0.194211 -0.964942 -0.047368 0.515340 0.856973 0.004665
-0.191697 -0.957895 -0.047368 0.245966 0.560410 -0.790849
-0.156316 -0.957895 -0.049546 0.697441 0.399536 0.594934
-0.162546 -0.957895 -0.047368 0.508011 0.750494 0.422709
0.184737 -0.963562 -0.047368 0.204494 0.956499 -0.208067
0.184737 -0.957895 -0.052160 0.930517 0.365046 0.029654
0.251052 -0.966011 -0.047368 -0.374846 0.911113 -0.171358
0.279473 -0.960790 -0.047368 -0.561159 -0.311887 -0.766699
0.288947 -0.957895 -0.052535 -0.654038 0.462856 -0.598330
0.280751 -0.957895 -0.047368 -0.377742 -0.573450 -0.726957
0.301270 -0.957895 -0.047368 -0.176512 -0.084466 0.980668
-0.326842 -0.949930 -0.047368 -0.439391 0.615211 -0.654562
-0.317368 -0.936842 -0.049711 -0.867145 0.330584 -0.372523
-0.322418 -0.936842 -0.047368 -0.702417 0.019650 -0.711495
-0.307895 -0.936842 -0.050172 -0.978138 -0.194140 -0.074543
-0.298421 -0.936842 -0.050841 -0.994995 -0.054477 -0.083764
-0.288947 -0.936842 -0.050964 -0.884206 0.359676 0.298016
-0.285148 -0.936842 -0.047368 -0.123182 0.091799 0.988129
-0.279474 -0.956765 -0.047368 -0.172365 0.963254 0.205989
-0.270000 -0.956040 -0.047368 -0.066177 0.868873 -0.490591
-0.260526 -0.936842 -0.051063 0.884380 0.466721 0.006520
-0.260526 -0.944831 -0.047368 0.156860 0.986850 -0.039023
-0.251053 -0.936842 -0.053410 0.994133 0.023959 -0.105476
-0.251053 -0.948576 -0.047368 0.123001 0.990650 0.059024
-0.241579 -0.936842 -0.050411 0.959802 0.270715 -0.074113
-0.241579 -0.947025 -0.047368 0.079760 0.995930 0.041969
-0.232105 -0.936842 -0.050816 0.994799 -0.038422 0.094338
-0.232105 -0.949182 -0.047368 0.128852 0.989364 -0.067492
-0.222632 -0.936842 -0.051777 0.840939 0.463756 0.278842
-0.222632 -0.946258 -0.047368 0.232555 0.963709 0.131085
-0.213158 -0.953019 -0.047368 0.244187 0.929419 0.276684
-0.184737 -0.948323 -0.047368 0.239982 0.925463 -0.293132
-0.175263 -0.936842 -0.051790 0.691428 0.721861 0.029050
-0.175263 -0.950224 -0.047368 0.244859 0.954980 0.167505
-0.165790 -0.955946 -0.047368 0.280773 0.927522 0.246716
-0.004737 -0.936842 -0.051662 0.986538 0.102962 -0.127053
0.004737 -0.936842 -0.050795 0.707024 -0.651763 0.274449
0.028294 -0.936842 -0.047368 0.377235 -0.561013 -0.736857
0.033158 -0.952197 -0.047368 -0.514069 -0.669887 0.535710
0.035293 -0.936842 -0.047368 0.266373 -0.114799 0.957009
0.184737 -0.936842 -0.050261 0.923479 0.361277 0.129092
0.203684 -0.936842 -0.052507 0.682568 0.648329 -0.337300
0.213158 -0.936842 -0.050662 0.961977 -0.187139 0.198946
0.241579 -0.936842 -0.051900 0.963823 0.203214 -0.172480
0.251052 -0.936842 -0.052849 0.943519 -0.324765 0.065580
0.260526 -0.936842 -0.049857 0.889394 -0.094586 -0.447250
0.272784 -0.936842 -0.047368 -0.331193 -0.257710 -0.907687
0.279473 -0.951416 -0.047368 -0.269541 -0.446452 -0.853246
0.307895 -0.936842 -0.051680 0.316110 -0.109075 0.942432
0.304883 -0.936842 -0.047368 -0.025722 0.073239 0.996983
-0.317368 -0.915789 -0.049922 -0.698956 0.568007 -0.434544
-0.322706 -0.915789 -0.047368 -0.530957 0.630550 -0.566120
-0.307895 -0.915789 -0.053471 -0.637014 0.723695 -0.265478
-0.298421 -0.915789 -0.052492 -0.949222 0.186081 0.253676
-0.288947 -0.915789 -0.047575 -0.690178 0.409274 0.596783
-0.279474 -0.922918 -0.047368 -0.110522 -0.509640 0.853260
-0.270000 -0.915789 -0.051057 0.963538 0.001928 0.267566
-0.276263 -0.915789 -0.047368 -0.191443 0.195674 0.961801
-0.260526 -0.915789 -0.050933 0.373265 -0.693710 -0.615987
-0.258503 -0.915789 -0.047368 0.256783 -0.676571 -0.690155
-0.251053 -0.923446 -0.047368 0.425759 -0.902088 -0.070473
-0.241579 -0.922471 -0.047368 0.193224 -0.976339 -0.097094
-0.232105 -0.925229 -0.047368 0.566151 -0.636434 0.523856
-0.228553 -0.915789 -0.047368 0.084957 -0.022482 0.996131
-0.222632 -0.915789 -0.052394 0.859380 -0.275845 0.430554
-0.213158 -0.915789 -0.052296 0.997307 0.054304 0.049303
-0.203684 -0.915789 -0.053361 0.909516 0.040014 0.413739
0.004737 -0.915789 -0.051850 0.257628 0.936068 -0.239593
0.014210 -0.915789 -0.053646 0.180935 0.931620 -0.315192
0.017378 -0.915789 -0.047368 0.027960 0.380200 -0.924481
0.023684 -0.929729 -0.047368 0.191394 -0.759189 -0.622093
0.036256 -0.915789 -0.047368 0.312241 0.591309 0.743545
0.213158 -0.915789 -0.053668 0.378243 0.913902 -0.147362
0.278003 -0.915789 -0.047368 -0.660503 0.650397 -0.375126
0.288947 -0.916052 -0.047368 -0.780375 0.597965 0.182903
0.287598 -0.915789 -0.047368 -0.374931 0.921436 0.101896
0.298421 -0.922387 -0.047368 0.001981 0.874142 0.485667
-0.317368 -0.911275 -0.047368 -0.247847 0.945453 -0.211400
-0.307895 -0.907018 -0.047368 -0.337412 0.919448 -0.201912
-0.298421 -0.894737 -0.047684 -0.548397 0.779040 -0.303902
-0.298791 -0.894737 -0.047368 -0.193263 0.671245 -0.715597
-0.297624 -0.894737 -0.047368 -0.510178 0.576921 0.637872
-0.288947 -0.915434 -0.047368 -0.814318 0.579958 0.023111
-0.279474 -0.909094 -0.047368 -0.295121 0.828739 0.475494
-0.260526 -0.894737 -0.049576 0.860079 0.355352 -0.366044
-0.251053 -0.899852 -0.047368 0.445653 0.842570 -0.302439
-0.241579 -0.894737 -0.047553 0.908398 0.389036 -0.153181
-0.241579 -0.896252 -0.047368 0.138079 0.979753 -0.144976
-0.238218 -0.894737 -0.047368 0.313847 0.938478 -0.144084
-0.222632 -0.894737 -0.051947 0.930066 0.087090 0.356920
-0.231857 -0.894737 -0.047368 0.273211 0.005703 0.961937
-0.213158 -0.894737 -0.053315 0.975274 0.038867 0.217556
-0.184737 -0.894737 -0.052173 0.996889 -0.070005 0.036218
0.023684 -0.909907 -0.047368 0.042378 0.975427 -0.216208
0.033158 -0.911064 -0.047368 0.270331 0.938537 0.214637
0.279473 -0.914561 -0.047368 -0.573964 0.806329 -0.142826
-0.298421 -0.892966 -0.047368 -0.680490 0.615517 -0.397582
-0.260526 -0.873684 -0.049961 0.799384 0.600370 -0.023256
-0.251053 -0.873684 -0.051329 0.983476 0.146576 -0.106257
-0.243881 -0.873684 -0.047368 0.202668 0.499585 -0.842223
-0.241579 -0.893221 -0.047368 0.775187 -0.556394 -0.299182
-0.237813 -0.873684 -0.047368 0.429940 0.534263 0.727815
-0.232105 -0.873684 -0.049199 0.939083 0.059319 0.338533
-0.232105 -0.892943 -0.047368 -0.084992 0.412924 0.906791
-0.222632 -0.873684 -0.051327 0.979465 -0.036704 0.198247
-0.213158 -0.873684 -0.052141 0.986574 -0.065354 0.149669
-0.203684 -0.873684 -0.053037 0.987994 -0.071936 0.136720
-0.052105 -0.873684 -0.048069 0.047280 -0.686622 -0.725475
-0.051681 -0.873684 -0.047368 -0.005765 -0.850957 -0.525204
-0.042632 -0.885617 -0.047368 0.054527 -0.927816 -0.369032
-0.033158 -0.876612 -0.047368 0.449279 -0.660101 0.602009
-0.023684 -0.873684 -0.051214 0.694129 -0.535896 0.480625
-0.031811 -0.873684 -0.047368 0.487737 -0.769103 0.413029
0.213158 -0.873684 -0.049269 0.850356 0.478492 0.218953
0.241208 -0.873684 -0.047368 -0.198628 0.378900 -0.903871
0.241579 -0.874243 -0.047368 0.110337 -0.978375 -0.174951
0.251052 -0.873684 -0.052397 0.511394 -0.743178 0.431466
0.242379 -0.873684 -0.047368 -0.164972 0.381896 0.909362
-0.241579 -0.852631 -0.053676 0.893186 0.364791 -0.262955
-0.241579 -0.868834 -0.047368 0.134918 0.926399 -0.351542
-0.232105 -0.852631 -0.052470 0.984128 0.002289 -0.177446
-0.222632 -0.852631 -0.051462 0.952558 0.299812 0.052413
-0.213158 -0.852631 -0.053164 0.974215 -0.146404 0.171673
-0.203684 -0.852631 -0.053556 0.986912 -0.161261 0.000108
-0.194211 -0.852631 -0.053158 0.938550 -0.236389 -0.251483
-0.184737 -0.852631 -0.048423 0.737886 -0.595679 -0.317319
-0.090000 -0.852631 -0.050362 0.908072 -0.142547 -0.393809
-0.080526 -0.852631 -0.050366 0.982256 -0.172248 0.074181
-0.071053 -0.852631 -0.051113 0.682247 -0.711964 0.166274
-0.061579 -0.852631 -0.048445 -0.213632 -0.743503 -0.633692
-0.062883 -0.852631 -0.047368 0.079268 -0.624105 -0.777309
-0.061579 -0.855101 -0.047368 0.092569 -0.760637 -0.642544
-0.052105 -0.873061 -0.047368 0.063271 -0.743159 -0.666117
-0.042632 -0.852631 -0.050542 -0.999380 0.026674 -0.022979
-0.033158 -0.852631 -0.053276 -0.920922 0.270203 -0.280879
-0.023684 -0.866782 -0.047368 0.029440 -0.856774 0.514852
-0.018733 -0.852631 -0.047368 -0.462603 -0.222824 0.858107
-0.004737 -0.856991 -0.047368 -0.881061 -0.427794 -0.201801
-0.004737 -0.852631 -0.048390 -0.997980 -0.031115 0.055387
-0.006977 -0.852631 -0.047368 -0.753679 -0.171211 -0.634551
-0.001897 -0.852631 -0.047368 -0.774092 -0.281055 0.567266
0.071052 -0.852631 -0.048779 0.835285 -0.486962 -0.255277
0.127895 -0.852631 -0.050888 0.765102 -0.638638 -0.082227
0.241579 -0.872987 -0.047368 -0.256606 0.962342 -0.089728
0.279473 -0.852631 -0.049873 -0.189002 0.961924 0.197433
0.278389 -0.852631 -0.047368 -0.194903 0.693134 -0.693958
0.279473 -0.857368 -0.047368 -0.740399 0.493543 -0.456316
0.280462 -0.852631 -0.047368 -0.154143 0.440567 0.884387
-0.241579 -0.831579 -0.052716 0.814706 -0.215062 -0.538519
-0.232105 -0.831579 -0.049228 0.993832 0.052226 0.097831
-0.213158 -0.831579 -0.047851 0.848668 -0.359168 -0.388280
-0.203684 -0.831579 -0.049517 0.814146 -0.553839 0.174438
-0.194211 -0.831579 -0.050658 0.720290 -0.692091 0.046817
-0.184737 -0.831579 -0.049041 0.687460 -0.619181 0.379491
-0.069573 -0.831579 -0.047368 0.083315 -0.581338 -0.809386
-0.066540 -0.839153 -0.050310 -0.326097 -0.533324 -0.780530
-0.042632 -0.833258 -0.047368 -0.619094 0.784849 0.027104
-0.043700 -0.831579 -0.047368 -0.195830 -0.545667 0.814799
-0.033158 -0.831579 -0.052030 -0.811867 -0.437047 0.387120
-0.040657 -0.831579 -0.047368 -0.495270 -0.747541 -0.442595
-0.023684 -0.831719 -0.047368 -0.876293 0.377690 0.299100
-0.023863 -0.831579 -0.047368 -0.836013 -0.417250 0.356348
-0.004737 -0.831579 -0.050075 -0.549961 -0.819889 0.159137
-0.013276 -0.831579 -0.047368 -0.559525 -0.790072 -0.250436
0.002890 -0.831579 -0.047368 -0.863684 -0.394200 0.314097
0.014210 -0.831579 -0.048109 -0.935731 -0.339221 0.096624
0.006892 -0.831579 -0.047368 -0.830252 -0.523224 -0.192141
0.014210 -0.838468 -0.047368 -0.785063 -0.582150 0.211608
0.017882 -0.831579 -0.047368 -0.607219 -0.614011 0.504256
0.033158 -0.831579 -0.049595 -0.705093 -0.684231 -0.186202
0.028034 -0.831579 -0.047368 -0.540461 -0.647999 -0.536656
0.033158 -0.844582 -0.047368 -0.414818 -0.747616 -0.518649
0.042631 -0.841226 -0.047368 -0.274677 -0.719874 0.637443
0.042631 -0.831579 -0.049837 -0.531926 -0.706140 0.467355
0.044479 -0.831579 -0.047368 -0.135640 -0.482645 0.865249
0.061579 -0.831579 -0.052868 -0.959235 0.278860 -0.045890
0.059700 -0.831579 -0.047368 -0.207091 -0.384286 -0.899687
0.061579 -0.835884 -0.047368 -0.422191 -0.628085 -0.653654
0.071052 -0.848158 -0.047368 0.316371 -0.947522 -0.045954
0.071052 -0.831579 -0.050407 -0.912884 -0.392281 0.112954
0.080526 -0.833147 -0.047368 -0.517847 -0.839122 0.166462
0.080526 -0.831579 -0.048409 -0.641996 -0.763120 0.074094
0.090000 -0.840097 -0.047368 0.034363 -0.992978 -0.113200
0.090000 -0.831579 -0.052652 -0.751866 -0.641865 -0.150687
0.099474 -0.840498 -0.047368 0.009619 -0.997225 0.073823
0.099474 -0.831579 -0.053133 -0.643884 -0.764791 0.022534
0.108947 -0.831579 -0.051755 -0.382150 -0.890424 0.247199
0.108947 -0.837453 -0.047368 0.248654 -0.932754 0.261038
0.114892 -0.831579 -0.047368 0.349544 -0.834087 0.426753
0.120355 -0.831579 -0.047368 -0.102191 -0.715691 -0.690900
0.127895 -0.843424 -0.047368 0.361101 -0.926419 0.106556
0.132593 -0.831579 -0.047368 -0.102082 -0.619467 0.778357
0.241579 -0.831579 -0.052558 0.390024 -0.571207 -0.722222
0.251052 -0.831579 -0.051823 0.529692 -0.848004 0.017799
0.260526 -0.831579 -0.052751 0.836472 -0.339339 0.430306
0.279473 -0.851056 -0.047368 -0.229059 0.956342 0.181500
-0.260526 -0.810526 -0.050966 0.565900 -0.767248 -0.301809
-0.251053 -0.810526 -0.051765 0.757536 -0.650273 -0.057313
-0.241579 -0.810526 -0.049227 0.813731 -0.576307 -0.075575
-0.232105 -0.810526 -0.050205 0.418820 -0.815615 -0.399202
-0.222632 -0.823676 -0.047368 0.295481 -0.927689 -0.228218
-0.228825 -0.810526 -0.047368 0.242543 -0.387406 -0.889432
-0.213158 -0.827130 -0.047368 0.753195 -0.654329 -0.067460
-0.207915 -0.810526 -0.047368 0.426726 -0.778863 0.459649
-0.203684 -0.810526 -0.048174 0.742823 -0.651777 -0.152972
-0.202221 -0.810526 -0.047368 0.229176 -0.747808 -0.623107
-0.194211 -0.823656 -0.047368 0.226591 -0.935628 -0.270661
-0.184737 -0.829084 -0.047368 -0.072321 -0.953681 0.291997
-0.175263 -0.818649 -0.047368 0.012819 -0.926857 0.375196
-0.165790 -0.810526 -0.048888 0.122222 -0.983299 0.134851
-0.166374 -0.810526 -0.047368 -0.066108 -0.877199 0.475553
-0.163533 -0.810526 -0.047368 0.237762 -0.944358 -0.227280
-0.156316 -0.814400 -0.047368 -0.082019 -0.995536 -0.046703
-0.150674 -0.810526 -0.047368 0.138699 -0.926516 0.349757
-0.144774 -0.810526 -0.047368 -0.193223 -0.819507 -0.539512
-0.137369 -0.818596 -0.047368 -0.231789 -0.968945 -0.086137
-0.133128 -0.810526 -0.047368 -0.133342 -0.344206 0.929377
-0.083616 -0.810526 -0.047368 0.167636 -0.345016 -0.923506
-0.080526 -0.820210 -0.047368 0.207941 -0.711078 -0.671661
-0.071053 -0.827438 -0.047368 0.206095 -0.727509 -0.654413
-0.042632 -0.830594 -0.047368 -0.159385 -0.983964 0.080072
-0.023684 -0.831507 -0.047368 -0.429680 -0.895925 0.112665
-0.014211 -0.831175 -0.047368 -0.380327 -0.922484 -0.066149
0.004737 -0.830175 -0.047368 -0.825650 -0.561857 0.051168
0.023684 -0.825367 -0.047368 -0.580632 -0.811366 -0.067459
0.052105 -0.817052 -0.047368 -0.201977 -0.937376 0.283780
0.052105 -0.810526 -0.051278 -0.903501 -0.323212 0.281460
0.071052 -0.810526 -0.051264 -0.758923 -0.511059 -0.403552
0.118421 -0.821921 -0.047368 0.297239 -0.907622 0.296432
0.137368 -0.823150 -0.047368 -0.112264 -0.575340 0.810174
0.140486 -0.810526 -0.047368 -0.174299 -0.032410 0.984159
0.222631 -0.810526 -0.051025 0.601640 -0.307139 -0.737357
0.226151 -0.810526 -0.047368 0.321769 -0.673434 -0.665546
0.232105 -0.817307 -0.047368 0.138481 -0.957382 -0.253463
0.241579 -0.813097 -0.047368 0.128101 -0.968260 -0.214621
0.251052 -0.825001 -0.047368 0.124165 -0.969992 0.209043
0.260526 -0.816071 -0.047368 0.059958 -0.758196 0.649264
0.263126 -0.810526 -0.047368 -0.156963 -0.423771 0.892065
-0.298421 -0.789473 -0.050823 0.584145 -0.443112 -0.680019
-0.288947 -0.789473 -0.051434 0.603628 -0.796551 0.033745
-0.279474 -0.789473 -0.051110 0.724138 -0.686402 -0.066915
-0.270000 -0.789473 -0.049893 0.651805 -0.730162 -0.204973
-0.261332 -0.789473 -0.047368 0.559964 -0.734377 -0.383575
-0.260526 -0.791449 -0.047368 0.545336 -0.749653 -0.375004
-0.251053 -0.799131 -0.047368 0.589395 -0.768598 -0.248739
-0.241579 -0.807381 -0.047368 0.511318 -0.833910 0.207721
-0.232105 -0.800500 -0.047368 0.689623 -0.606535 -0.395645
-0.203684 -0.808072 -0.047368 0.408128 -0.855363 -0.319038
-0.165790 -0.809299 -0.047368 -0.005015 -0.985056 0.172160
-0.156316 -0.789473 -0.052986 -0.782222 -0.445705 0.435289
-0.146842 -0.807567 -0.047368 -0.222523 -0.973812 0.046617
