ply
format ascii 1.0
element vertex 839
property float x
property float y
property float z
property float nx
property float ny
property float nz
end_header
-0.127895 -0.005200 0.085264 -0.387750 -0.871659 0.299769
-0.127895 0.010528 0.082519 -0.860425 0.005207 0.509550
-0.118421 0.005891 0.085264 -0.650339 -0.149559 0.744776
-0.118421 0.010528 0.084495 -0.734450 0.091123 0.672517
-0.117807 0.010528 0.085264 -0.410093 0.140785 0.901112
0.090000 -0.009099 0.085264 -0.621132 0.682352 -0.385475
0.099474 0.006116 0.085264 -0.718024 0.651390 -0.245219
0.108947 0.007744 0.085264 -0.834072 0.492616 -0.248301
0.118421 0.010528 0.083052 -0.776794 0.423091 -0.466460
0.110800 0.010528 0.085264 -0.760313 0.433613 -0.483635
0.317368 -0.010297 0.085264 -0.574332 -0.576736 0.580963
0.326842 0.003013 0.085264 -0.605862 -0.779145 0.160825
0.402631 0.010528 0.082096 -0.866574 -0.215030 0.450347
0.412105 -0.002497 0.085264 -0.384933 -0.907358 0.168903
0.412105 0.010528 0.079503 -0.872712 0.300399 -0.384883
-0.412105 0.021367 0.085264 -0.885661 0.255184 -0.387926
-0.414779 0.031580 0.085264 -0.331486 -0.261602 0.906467
-0.410041 0.031580 0.085264 -0.271669 -0.016718 -0.962246
-0.364737 0.031580 0.081980 -0.690766 -0.715439 -0.104828
-0.347271 0.031580 0.085264 -0.296135 -0.502935 0.812010
-0.156316 0.017548 0.085264 0.023239 0.905650 -0.423390
-0.146842 0.012258 0.085264 0.092003 0.995755 -0.002807
-0.137369 0.021035 0.085264 -0.057765 0.963811 -0.260253
-0.127895 0.016663 0.085264 -0.457370 0.883895 0.097687
-0.118421 0.021161 0.085264 -0.591781 0.318951 0.740315
0.118421 0.024875 0.085264 -0.718220 0.455240 -0.526229
0.127895 0.031580 0.082500 -0.871973 0.287996 -0.395880
0.120512 0.031580 0.085264 -0.600532 0.296276 -0.742685
0.137368 0.031580 0.079552 -0.891103 0.426569 -0.154836
0.146842 0.031580 0.080829 -0.933788 0.320202 -0.159719
0.317368 0.031580 0.079910 -0.457446 -0.518827 0.722193
0.326367 0.031580 0.085264 -0.619133 -0.692662 0.369993
0.326842 0.030126 0.085264 -0.888140 0.287695 0.358383
0.336316 0.017731 0.085264 -0.629890 0.626318 -0.459308
0.339693 0.031580 0.085264 -0.447495 -0.694985 -0.562800
0.364737 0.031580 0.082207 -0.944660 -0.315789 0.088854
0.393158 0.031580 0.082802 -0.828340 0.270456 0.490619
0.402631 0.031580 0.085198 -0.470417 0.654676 0.591698
0.402698 0.031580 0.085264 -0.587135 0.617118 0.523868
0.412105 0.021449 0.085264 -0.447923 0.868883 0.210732
-0.412105 0.046286 0.085264 -0.904670 -0.424980 -0.031054
-0.412105 0.052633 0.083924 -0.913997 -0.272913 -0.300213
-0.345789 0.033664 0.085264 -0.233441 -0.857223 0.458992
-0.336316 0.040497 0.085264 -0.322869 -0.922021 0.213618
-0.326842 0.043571 0.085264 -0.193980 -0.980437 0.033390
-0.317368 0.042646 0.085264 -0.212738 -0.973942 0.078604
-0.307895 0.047284 0.085264 -0.271242 -0.932901 0.236905
-0.307895 0.052633 0.080625 -0.421390 -0.867063 0.265767
-0.299651 0.052633 0.085264 -0.351999 -0.867094 0.352483
-0.118421 0.052633 0.084555 -0.980572 0.169065 0.099473
-0.119013 0.052633 0.085264 -0.278277 0.268877 -0.922099
-0.118421 0.045548 0.085264 -0.897434 -0.412783 -0.155635
-0.117736 0.052633 0.085264 -0.659576 -0.233906 0.714316
0.127895 0.052633 0.083602 -0.881060 0.214718 -0.421461
0.123586 0.052633 0.085264 -0.749402 0.281249 -0.599412
0.137368 0.052633 0.080704 -0.923435 0.249457 -0.291615
0.146842 0.052633 0.080061 -0.849481 -0.057455 -0.524482
0.326842 0.031794 0.085264 -0.302229 -0.937086 0.174719
0.336316 0.034393 0.085264 -0.318613 -0.946786 -0.045641
0.393158 0.052633 0.081532 -0.713931 -0.563413 0.415774
0.402631 0.052633 0.084450 -0.761389 -0.532347 0.369992
0.405619 0.052633 0.085264 -0.777464 -0.531930 0.335560
-0.298421 0.055308 0.085264 -0.393081 -0.530868 0.750777
-0.293184 0.073686 0.085264 -0.496336 -0.271888 0.824455
-0.118421 0.055411 0.085264 -0.901711 0.406528 -0.147148
0.127895 0.073686 0.085251 -0.844621 0.347792 -0.407009
0.127861 0.073686 0.085264 -0.553259 0.529103 -0.643393
0.137368 0.073686 0.083148 -0.878195 0.382700 -0.286905
0.146842 0.073686 0.081236 -0.809440 0.410189 -0.420180
0.412105 0.072930 0.085264 -0.539771 -0.764805 0.351740
0.412105 0.073686 0.085160 -0.655832 -0.698139 0.287205
-0.298421 0.094738 0.080993 -0.303533 -0.624366 0.719746
-0.296218 0.094738 0.085264 -0.584767 -0.076734 0.807564
-0.137369 0.094738 0.083053 -0.455397 -0.624427 -0.634591
-0.139943 0.094738 0.085264 -0.462813 -0.245727 -0.851717
-0.137369 0.086145 0.085264 -0.686476 -0.422302 -0.591956
-0.127895 0.077070 0.085264 -0.805589 -0.577788 -0.131100
-0.118421 0.081944 0.085264 -0.413200 -0.874762 0.253097
-0.108947 0.094680 0.085264 -0.435165 -0.686920 0.582042
-0.108947 0.094738 0.085249 -0.612846 -0.449108 0.650171
-0.108931 0.094738 0.085264 -0.466065 -0.445266 0.764540
0.127895 0.073752 0.085264 -0.612484 0.665257 -0.426963
0.137368 0.082618 0.085264 -0.611265 0.736997 -0.288428
0.146842 0.091572 0.085264 -0.487239 0.759946 -0.430210
0.156316 0.094738 0.081173 -0.695087 0.483221 -0.532308
0.148943 0.094738 0.085264 -0.554678 0.506666 -0.660016
0.402631 0.094738 0.083179 -0.603199 -0.458049 0.652948
0.406849 0.094738 0.085264 -0.841910 -0.104580 0.529388
0.412105 0.074349 0.085264 -0.909574 0.347398 0.228011
-0.288947 0.109239 0.085264 -0.354998 -0.838322 0.413754
-0.279474 0.112861 0.085264 -0.378635 -0.921169 -0.089904
-0.270000 0.105842 0.085264 -0.433647 -0.873217 -0.222358
-0.260526 0.105633 0.085264 -0.585841 -0.796863 0.147646
-0.251053 0.114214 0.085264 -0.535497 -0.764382 0.359115
-0.251053 0.115791 0.084043 -0.534521 -0.696953 0.478062
-0.249246 0.115791 0.085264 -0.524082 -0.703061 0.480669
-0.143832 0.115791 0.085264 -0.182375 -0.583778 -0.791166
-0.108947 0.115791 0.082639 -0.560421 -0.155596 0.813461
-0.106555 0.115791 0.085264 -0.406418 -0.047203 0.912467
0.156316 0.115791 0.082194 -0.509015 -0.452675 -0.732113
0.152820 0.115791 0.085264 -0.642428 -0.428311 -0.635481
0.412105 0.098361 0.085264 -0.420426 -0.890597 0.173430
-0.241579 0.125482 0.085264 -0.465821 -0.842883 0.269369
-0.232105 0.129512 0.085264 -0.317911 -0.896171 0.309532
-0.232105 0.136844 0.081766 -0.741387 -0.383909 0.550416
-0.226571 0.136844 0.085264 -0.404351 -0.618149 0.674086
-0.161272 0.136844 0.085264 -0.062386 -0.459868 -0.885793
-0.156316 0.129067 0.085264 -0.148240 -0.863034 -0.482906
-0.146842 0.121662 0.085264 -0.175899 -0.884467 -0.432178
-0.108947 0.136844 0.080448 -0.395503 -0.366995 0.841958
-0.104340 0.136844 0.085264 -0.528255 -0.278625 0.802069
0.146842 0.136844 0.084652 -0.567742 -0.344270 -0.747762
0.145455 0.136844 0.085264 -0.701953 0.136140 -0.699091
0.146842 0.133514 0.085264 -0.592431 -0.415156 -0.690414
0.412105 0.136844 0.079154 -0.817056 -0.305348 0.489062
-0.232105 0.157896 0.082465 -0.423263 -0.635896 0.645357
-0.230059 0.157896 0.085264 -0.500871 -0.095685 0.860217
-0.159894 0.157896 0.085264 -0.557109 -0.670603 -0.489817
-0.100570 0.157896 0.085264 -0.488862 -0.284017 0.824832
0.146842 0.143448 0.085264 -0.505428 0.262496 -0.821972
0.148580 0.157896 0.085264 -0.438552 -0.220954 -0.871121
-0.222632 0.166975 0.085264 -0.333962 -0.864382 0.375915
-0.213158 0.177128 0.085264 -0.403457 -0.877225 0.260191
-0.213158 0.178949 0.084466 -0.490781 -0.870297 -0.041439
-0.203684 0.166734 0.085264 -0.426712 -0.900498 -0.083783
-0.203684 0.178949 0.080622 -0.712702 -0.692803 0.109908
-0.194211 0.173688 0.085264 -0.507701 -0.737046 0.446096
-0.194211 0.178949 0.083423 -0.617143 -0.610063 0.496948
-0.191684 0.178949 0.085264 -0.439619 -0.553018 0.707747
-0.165725 0.178949 0.085264 -0.231638 -0.392823 -0.889963
-0.099474 0.166827 0.085264 -0.524563 -0.181073 0.831893
-0.099474 0.178949 0.083811 -0.528755 -0.268982 0.805026
-0.097967 0.178949 0.085264 -0.521100 -0.212810 0.826539
0.137368 0.178949 0.083968 -0.708635 -0.430588 -0.558954
0.135832 0.178949 0.085264 -0.626357 -0.351581 -0.695749
0.137368 0.174773 0.085264 -0.564509 -0.598405 -0.568542
0.146842 0.162957 0.085264 -0.446554 -0.712224 -0.541596
0.146842 0.178949 0.080385 -0.511679 -0.522148 -0.682310
-0.184737 0.189843 0.085264 -0.362008 -0.925733 0.109405
-0.184737 0.200001 0.079251 -0.821547 -0.563135 0.089108
-0.175263 0.180124 0.085264 -0.484834 -0.819161 -0.306448
-0.165790 0.179948 0.085264 -0.645590 -0.317154 -0.694714
-0.099474 0.200001 0.080600 -0.562852 -0.465430 0.683061
-0.091877 0.200001 0.085264 -0.626048 -0.468128 0.623635
0.137368 0.200001 0.082586 -0.546329 -0.695690 -0.466412
0.129646 0.200001 0.085264 -0.822954 -0.484732 -0.296279
-0.184737 0.221054 0.079933 -0.886524 -0.460949 0.040008
-0.090000 0.205000 0.085264 -0.480606 -0.463570 0.744392
-0.090000 0.221054 0.082249 -0.606772 -0.288303 0.740749
-0.086644 0.221054 0.085264 -0.364816 -0.466204 0.805955
0.127895 0.221054 0.081267 -0.473527 -0.659608 -0.583687
0.120612 0.221054 0.085264 -0.559352 -0.659843 -0.501729
0.127895 0.201942 0.085264 -0.634309 -0.525559 -0.566957
-0.090000 0.242107 0.081008 -0.652649 -0.183683 0.735058
-0.084687 0.242107 0.085264 -0.513860 -0.146397 0.845290
0.118421 0.242107 0.079653 -0.754721 -0.385534 -0.530810
0.112203 0.242107 0.085264 -0.344142 -0.500795 -0.794211
0.118421 0.224245 0.085264 -0.503506 -0.680985 -0.531733
-0.083315 0.263160 0.085264 -0.428497 -0.087941 0.899253
0.108947 0.263160 0.082140 -0.718039 -0.246080 -0.651049
0.104406 0.263160 0.085264 -0.625781 -0.340587 -0.701711
0.108947 0.252156 0.085264 -0.584901 -0.495786 -0.641940
-0.090000 0.284212 0.079076 -0.658366 0.087652 0.747577
-0.082762 0.284212 0.085264 -0.430538 0.042665 0.901563
0.108947 0.284212 0.081227 -0.767510 -0.233722 -0.596911
0.100804 0.284212 0.085264 -0.685211 -0.315752 -0.656343
-0.090000 0.305265 0.081119 -0.542809 0.285311 0.789909
-0.086692 0.305265 0.085264 -0.346396 0.233702 0.908511
0.099474 0.305265 0.082870 -0.812365 -0.219691 -0.540183
0.094005 0.305265 0.085264 -0.703767 -0.261302 -0.660631
0.099474 0.289183 0.085264 -0.688004 -0.401650 -0.604423
-0.090000 0.326318 0.082906 -0.767314 0.092591 0.634552
-0.086396 0.326318 0.085264 -0.489288 0.030224 0.871598
0.099474 0.326318 0.082249 -0.783869 -0.078702 -0.615918
0.092667 0.326318 0.085264 -0.717928 0.184806 -0.671137
-0.099474 0.347370 0.080428 -0.815690 0.261934 0.515791
-0.090000 0.347370 0.083760 -0.680075 0.533818 0.502530
-0.088121 0.347370 0.085264 -0.327248 0.372866 0.868262
0.099474 0.347370 0.083607 -0.674412 0.339237 -0.655810
0.096699 0.347370 0.085264 -0.517858 0.419248 -0.745691
-0.099474 0.368423 0.084725 -0.542831 0.288879 0.788596
-0.098964 0.368423 0.085264 -0.423545 0.503140 0.753300
-0.090000 0.352294 0.085264 -0.311898 0.714617 0.626132
0.099474 0.356144 0.085264 -0.604753 0.404347 -0.686132
0.108947 0.368423 0.079546 -0.562304 -0.425454 -0.709086
0.102700 0.368423 0.085264 -0.462022 -0.274161 -0.843428
-0.099474 0.389475 0.083541 -0.631394 0.044897 0.774161
-0.096765 0.389475 0.085264 -0.575056 -0.069154 0.815186
0.099474 0.389475 0.082138 -0.459755 -0.459212 -0.760098
0.094481 0.389475 0.085264 -0.689568 -0.384810 -0.613529
0.099474 0.380091 0.085264 -0.384715 -0.615138 -0.688186
-0.099474 0.398351 0.085264 -0.427869 0.385135 0.817679
-0.101388 0.410528 0.085264 -0.297899 0.271389 0.915207
0.099474 0.410528 0.081601 -0.530549 0.341965 -0.775614
0.094619 0.410528 0.085264 -0.296369 0.261786 -0.918495
-0.118421 0.431581 0.081049 -0.866923 0.233396 0.440422
-0.108947 0.431581 0.083037 -0.770020 0.318214 0.553000
-0.106097 0.431581 0.085264 -0.563150 0.248107 0.788229
0.099474 0.423435 0.085264 -0.493398 0.232798 -0.838071
0.101263 0.431581 0.085264 -0.321286 -0.431465 -0.842978
-0.118421 0.452633 0.080845 -0.932305 -0.099812 0.347627
-0.108947 0.452633 0.082812 -0.866864 -0.038384 0.497065
-0.104505 0.452633 0.085264 -0.618813 -0.187847 0.762748
0.074324 0.452633 0.085264 -0.358967 -0.780474 -0.511862
0.080526 0.444126 0.085264 -0.388891 -0.845029 -0.367000
0.090000 0.439096 0.085264 -0.307359 -0.932729 -0.188539
0.099474 0.435457 0.085264 -0.316058 -0.879772 -0.355117
-0.118421 0.473686 0.079390 -0.964517 0.002756 0.264008
-0.108947 0.473686 0.082898 -0.842112 -0.207371 0.497840
-0.101890 0.473686 0.085264 -0.848849 -0.143720 0.508724
0.014210 0.473686 0.081977 -0.345772 -0.885937 -0.309123
0.010510 0.473686 0.085264 -0.313710 -0.878135 -0.361201
0.014210 0.469448 0.085264 -0.379051 -0.858842 -0.344543
0.023684 0.463012 0.085264 -0.378638 -0.925253 0.023267
0.033158 0.468060 0.085264 -0.374433 -0.927099 0.016949
0.033158 0.473686 0.081516 -0.287195 -0.953871 -0.087463
0.042631 0.463372 0.085264 -0.371587 -0.918948 -0.132127
0.052105 0.461538 0.085264 -0.363349 -0.921390 -0.137905
0.061579 0.455570 0.085264 -0.407357 -0.902554 -0.139485
0.071052 0.457344 0.085264 -0.434096 -0.891145 -0.131991
-0.118421 0.494739 0.079674 -0.969363 -0.160773 0.185709
-0.108947 0.494739 0.081399 -0.926494 -0.175339 0.332963
-0.099474 0.479403 0.085264 -0.723855 -0.424181 0.544155
-0.099474 0.494739 0.083439 -0.879807 -0.346000 0.325920
-0.093254 0.494739 0.085264 -0.737430 -0.485678 0.469376
-0.023684 0.494739 0.081998 -0.495798 -0.811002 -0.310579
-0.029884 0.494739 0.085264 -0.454078 -0.805758 -0.380220
-0.023684 0.488780 0.085264 -0.456995 -0.854576 -0.246689
-0.014211 0.485372 0.085264 -0.428425 -0.869069 -0.247327
-0.004737 0.476687 0.085264 -0.414418 -0.878483 -0.237752
0.004737 0.478469 0.085264 -0.364955 -0.924416 -0.110733
-0.412105 0.515791 0.082008 -0.567173 0.810284 -0.147495
-0.402632 0.515791 0.078960 -0.531099 0.745107 -0.403422
-0.108947 0.515791 0.079003 -0.834775 -0.494040 0.243052
-0.099474 0.515791 0.081014 -0.839896 -0.508891 0.188691
-0.090000 0.502647 0.085264 -0.841762 -0.488052 0.230742
-0.090000 0.515791 0.082564 -0.784525 -0.619683 -0.022665
-0.080526 0.498053 0.085264 -0.697505 -0.709717 -0.098941
-0.080526 0.515791 0.080660 -0.810546 -0.585660 -0.004328
-0.071053 0.495746 0.085264 -0.723331 -0.690278 -0.017531
-0.071053 0.515791 0.081193 -0.709446 -0.699778 -0.083647
-0.061579 0.497819 0.085264 -0.604663 -0.794395 0.057616
-0.061579 0.515791 0.079788 -0.713795 -0.696412 -0.074203
-0.052105 0.498939 0.085264 -0.549250 -0.833942 0.053521
-0.052105 0.515791 0.079588 -0.728485 -0.683872 0.040363
-0.042632 0.500782 0.085264 -0.536347 -0.843492 -0.029202
-0.042632 0.515791 0.080157 -0.654648 -0.746097 -0.121558
-0.033158 0.497839 0.085264 -0.446406 -0.866773 -0.222320
-0.412105 0.522894 0.085264 -0.593890 0.662977 -0.455803
-0.402632 0.536844 0.082566 -0.855570 0.401807 -0.326421
-0.409115 0.536844 0.085264 -0.731695 0.086368 -0.676139
-0.393158 0.536844 0.082716 -0.924811 0.074197 -0.373121
-0.402632 0.557897 0.080150 -0.788725 -0.438580 -0.430767
-0.411360 0.557897 0.085264 -0.540844 0.163701 -0.825039
-0.402632 0.578949 0.080500 -0.723802 0.643845 -0.248143
-0.410617 0.578949 0.085264 -0.483873 0.151661 -0.861896
-0.393158 0.578949 0.079776 -0.644379 -0.288145 -0.708342
-0.402632 0.593161 0.085264 -0.423988 0.787131 -0.447950
-0.396169 0.600002 0.085264 -0.332851 0.563835 -0.755844
-0.402384 0.621055 0.085264 -0.250208 -0.692396 -0.676745
-0.383684 0.621055 0.080938 -0.632627 0.753178 -0.180295
0.222631 0.619179 0.085264 -0.114565 0.680565 0.723676
0.221948 0.621055 0.085264 -0.012818 -0.180527 0.983487
0.224067 0.621055 0.085264 -0.017064 -0.107855 -0.994020
-0.402632 0.642107 0.081724 -0.843898 0.460646 0.275031
-0.411353 0.642107 0.085264 -0.478021 -0.125346 -0.869358
-0.402632 0.621375 0.085264 -0.585222 -0.726427 -0.360302
-0.393158 0.633874 0.085264 -0.969688 0.216219 -0.113816
-0.395718 0.642107 0.085264 -0.372585 -0.395567 0.839468
-0.383684 0.642107 0.083283 -0.789080 0.443981 -0.424539
-0.388798 0.642107 0.085264 -0.650790 -0.119340 -0.749820
0.222631 0.623778 0.085264 0.001026 -0.884636 0.466281
-0.415011 0.663160 0.085264 -0.027580 -0.272081 0.961879
-0.402632 0.663160 0.083851 -0.761247 0.213422 -0.612335
-0.405665 0.663160 0.085264 -0.262877 0.471382 -0.841840
-0.393158 0.648139 0.085264 -0.464394 -0.721267 0.513919
-0.383684 0.662142 0.085264 -0.286309 -0.952285 0.105738
-0.383906 0.663160 0.085264 -0.421656 -0.328401 0.845198
-0.383401 0.663160 0.085264 -0.363975 0.024943 -0.931075
-0.417395 0.684213 0.085264 -0.322834 0.526349 0.786597
-0.402632 0.671094 0.085264 -0.440632 0.721023 -0.534761
-0.393158 0.684061 0.085264 0.070769 0.994140 -0.081712
-0.374211 0.678328 0.085264 0.130054 0.706523 -0.695637
-0.374211 0.684213 0.082321 0.303321 0.137342 -0.942939
-0.372184 0.684213 0.085264 0.152272 -0.018177 -0.988171
-0.004737 0.684213 0.079810 -0.526025 0.747836 0.405016
0.004175 0.684213 0.085264 -0.462264 0.566492 0.682201
0.004737 0.682779 0.085264 -0.561413 0.694472 0.450027
0.014210 0.681594 0.085264 -0.463465 0.885977 0.015639
0.023684 0.682005 0.085264 -0.435941 0.899541 -0.027937
0.033158 0.682971 0.085264 -0.513100 0.818894 -0.257179
0.042631 0.684213 0.081158 -0.370352 0.854884 -0.363334
0.034360 0.684213 0.085264 -0.316871 0.900466 -0.297916
-0.374211 0.696883 0.085264 0.026743 0.118971 -0.992537
-0.374211 0.705265 0.083347 -0.680768 0.315791 -0.660932
-0.376723 0.705265 0.085264 -0.187531 0.141432 -0.972023
-0.014211 0.704579 0.085264 -0.292549 0.827366 0.479459
-0.014538 0.705265 0.085264 -0.303096 0.440170 0.845212
-0.004737 0.695656 0.085264 -0.346675 0.853922 0.388116
0.042631 0.689539 0.085264 -0.312073 0.888779 -0.335683
0.052105 0.699296 0.085264 -0.346132 0.860148 -0.374618
0.061579 0.705265 0.084039 -0.613240 0.740358 -0.275329
0.058700 0.705265 0.085264 -0.476093 0.764525 -0.434554
0.071052 0.705265 0.082644 -0.656188 0.669044 -0.348995
-0.413678 0.726318 0.085264 0.297028 -0.600636 0.742301
-0.402632 0.726318 0.083419 0.019568 -0.878921 -0.476565
-0.408321 0.726318 0.085264 -0.481027 -0.441075 -0.757671
-0.402632 0.724307 0.085264 0.095742 -0.973540 -0.207491
-0.393158 0.719338 0.085264 -0.059674 -0.982372 0.177154
-0.387706 0.726318 0.085264 0.180246 -0.097942 0.978733
-0.374211 0.721794 0.085264 -0.106532 0.714987 -0.690974
-0.364737 0.726318 0.083304 -0.891547 0.194592 -0.408996
-0.371354 0.726318 0.085264 -0.241402 0.744540 -0.622403
-0.355263 0.726318 0.079557 -0.423562 -0.258915 -0.868078
-0.015381 0.726318 0.085264 -0.425702 -0.054896 0.903197
0.061579 0.711774 0.085264 -0.682509 0.556570 -0.473721
0.071052 0.726318 0.085201 -0.879787 0.145977 -0.452399
0.070740 0.726318 0.085264 -0.876256 0.118465 -0.467056
-0.418118 0.747371 0.085264 -0.220057 0.472324 0.853513
-0.402632 0.730961 0.085264 -0.271487 0.794652 -0.542976
-0.397069 0.747371 0.085264 0.227722 0.541807 -0.809066
-0.391779 0.747371 0.085264 0.030041 0.402092 0.915106
-0.374211 0.747371 0.083885 0.583193 0.636552 -0.504666
-0.364737 0.745309 0.085264 0.876670 0.135446 -0.461632
-0.364737 0.747371 0.084972 0.757139 0.507045 -0.411882
-0.364304 0.747371 0.085264 0.555592 0.464029 -0.689924
-0.014211 0.744791 0.085264 -0.464445 -0.382840 0.798576
-0.014211 0.747371 0.084871 -0.358328 -0.349179 0.865838
-0.013719 0.747371 0.085264 -0.684927 -0.535717 0.493844
0.061579 0.747371 0.082741 -0.967114 -0.170856 -0.188409
0.057840 0.747371 0.085264 -0.522548 -0.212378 -0.825735
0.061579 0.735838 0.085264 -0.523839 -0.634655 -0.568160
0.071052 0.747371 0.083357 -0.859750 -0.319596 -0.398357
-0.393158 0.755355 0.085264 0.071253 0.645642 0.760309
-0.355263 0.759738 0.085264 0.290386 0.397277 -0.870544
-0.353620 0.768423 0.085264 -0.008909 -0.215713 -0.976416
-0.326842 0.768423 0.084558 -0.804770 -0.155442 0.572873
-0.270000 0.762592 0.085264 -0.154550 0.910428 -0.383712
-0.271264 0.768423 0.085264 -0.227554 0.025157 0.973440
-0.268792 0.768423 0.085264 -0.056183 0.372375 -0.926380
-0.014211 0.768423 0.082554 -0.753422 -0.357027 0.552165
-0.004737 0.760228 0.085264 -0.731234 -0.516756 0.445263
-0.004737 0.768423 0.083636 -0.842847 -0.400564 0.359385
-0.001101 0.768423 0.085264 -0.641015 -0.463738 0.611594
0.061579 0.768423 0.083913 -0.781122 -0.479460 -0.399958
0.057252 0.768423 0.085264 -0.825083 -0.357127 -0.437834
0.071052 0.768423 0.081010 -0.926629 0.032166 -0.374599
-0.393999 0.789476 0.085264 -0.069677 0.370193 -0.926338
-0.393158 0.786957 0.085264 0.004801 0.180017 0.983652
-0.392803 0.789476 0.085264 -0.037926 0.263183 0.964000
-0.355263 0.789476 0.082096 -0.095841 -0.611571 -0.785363
-0.357029 0.789476 0.085264 -0.112068 -0.483182 -0.868318
-0.355263 0.780249 0.085264 -0.042662 0.167705 -0.984914
-0.336316 0.786510 0.085264 -0.480628 0.840234 0.251004
-0.340747 0.789476 0.085264 -0.211032 -0.637225 0.741222
-0.326842 0.789476 0.085224 -0.537157 0.843097 0.025486
-0.326994 0.789476 0.085264 -0.374976 0.861812 -0.341574
-0.317368 0.783427 0.085264 -0.442031 0.714547 -0.542247
-0.326681 0.789476 0.085264 0.112843 0.417589 0.901602
-0.314941 0.789476 0.085264 0.058547 -0.414615 -0.908111
-0.279474 0.789476 0.081130 -0.098732 -0.973012 0.208567
-0.276970 0.789476 0.085264 0.160349 -0.916653 0.366109
-0.268485 0.789476 0.085264 0.007946 -0.541326 -0.840775
-0.004737 0.789476 0.080352 -0.651114 -0.678652 0.339827
0.002544 0.789476 0.085264 -0.453977 -0.476400 0.752960
0.052105 0.789476 0.083760 -0.612722 -0.616303 -0.494714
0.049464 0.789476 0.085264 -0.634071 -0.623802 -0.456974
0.052105 0.780385 0.085264 -0.782886 -0.376801 -0.495087
0.071052 0.789476 0.081062 -0.726099 -0.665231 -0.173919
-0.393158 0.791499 0.085264 -0.068709 0.777193 0.625500
-0.364737 0.810529 0.085068 -0.144258 -0.505886 -0.850452
-0.365211 0.810529 0.085264 -0.207324 -0.497459 -0.842349
-0.364737 0.809901 0.085264 -0.031023 -0.727471 -0.685437
-0.336316 0.791431 0.085264 -0.093376 -0.994695 0.043151
-0.317368 0.793080 0.085264 0.073063 -0.969578 -0.233623
-0.270000 0.792093 0.085264 0.061817 -0.991079 -0.118069
0.004737 0.794208 0.085264 -0.425059 -0.756965 0.496315
0.014210 0.794584 0.085264 -0.538849 -0.826292 0.163958
0.023684 0.803778 0.085264 -0.606493 -0.789207 0.096536
0.033158 0.798083 0.085264 -0.502540 -0.841780 -0.197129
0.042631 0.794512 0.085264 -0.477807 -0.863224 -0.162927
-0.402632 0.831581 0.081618 -0.260291 0.638248 -0.724492
-0.404849 0.831581 0.085264 -0.144551 0.309075 -0.939988
-0.402632 0.824278 0.085264 -0.190248 -0.686370 -0.701927
-0.398654 0.831581 0.085264 -0.221419 0.367810 0.903155
-0.364737 0.812619 0.085264 -0.235764 0.345031 -0.908498
-0.355263 0.831422 0.085264 -0.007553 0.957796 -0.287350
-0.355057 0.831581 0.085264 -0.074927 0.805548 -0.587774
-0.336316 0.831581 0.084379 -0.188241 0.871293 0.453226
-0.335717 0.831581 0.085264 -0.029717 0.851039 0.524261
-0.326842 0.822653 0.085264 -0.011977 0.950366 0.310905
-0.317368 0.824915 0.085264 0.054301 0.870396 -0.489349
-0.314352 0.831581 0.085264 0.006175 0.495977 -0.868314
-0.288947 0.828908 0.085264 -0.016338 0.998750 0.047244
-0.291846 0.831581 0.085264 0.056444 0.532514 0.844537
-0.282355 0.831581 0.085264 -0.008715 0.189401 -0.981861
-0.402632 0.836566 0.085264 -0.242605 0.940041 -0.239719
-0.393158 0.852634 0.081845 0.924016 0.035260 0.380726
-0.374211 0.852634 0.079926 0.629391 -0.546598 -0.552356
-0.364737 0.852634 0.084585 0.733412 -0.326722 -0.596120
-0.355263 0.833076 0.085264 -0.361903 -0.373110 -0.854292
-0.359858 0.852634 0.085264 0.839225 -0.397092 -0.371509
-0.355263 0.852634 0.082503 0.155299 -0.875814 -0.456981
-0.336316 0.833655 0.085264 -0.140043 0.587610 0.796933
-0.339439 0.852634 0.085264 -0.007927 -0.560465 0.828140
-0.317368 0.852634 0.083485 0.254337 -0.447395 -0.857409
-0.316792 0.852634 0.085264 0.041926 -0.402545 -0.914439
-0.288947 0.842409 0.085264 -0.228029 -0.921540 0.314272
-0.288947 0.852634 0.080205 -0.186299 -0.622938 -0.759764
0.317368 0.852634 0.083827 0.930867 -0.345567 0.118619
0.317368 0.844717 0.085264 -0.151102 0.871253 0.466998
0.314399 0.852634 0.085264 -0.251600 -0.074977 0.964923
0.326284 0.852634 0.085264 0.140598 0.874771 -0.463690
0.336316 0.852634 0.083350 0.990450 -0.137302 0.012539
0.336316 0.846955 0.085264 0.050440 0.997199 -0.055229
0.327479 0.852634 0.085264 0.417710 0.831673 0.365839
0.345789 0.852634 0.084534 0.919932 0.180784 -0.347912
0.345789 0.850969 0.085264 0.294946 0.897709 -0.327300
0.347291 0.852634 0.085264 0.207709 0.544905 -0.812364
-0.412105 0.873687 0.083894 0.744754 -0.666376 -0.035834
-0.419282 0.873687 0.085264 0.131907 -0.889602 0.437274
-0.408842 0.873687 0.085264 0.246740 -0.747929 -0.616216
-0.402632 0.864848 0.085264 0.319700 -0.946220 -0.049588
-0.393158 0.873687 0.084200 0.582996 -0.652834 0.483656
-0.394924 0.873687 0.085264 -0.063557 -0.804096 0.591093
-0.383684 0.873687 0.079176 0.860538 -0.501197 -0.090973
-0.374211 0.873687 0.083203 0.895489 -0.176441 -0.408617
-0.367680 0.873687 0.085264 0.608344 -0.420819 -0.672925
-0.364737 0.857534 0.085264 0.588086 -0.502135 -0.634047
-0.336316 0.856803 0.085264 0.049061 -0.934755 0.351888
-0.326842 0.861126 0.085264 0.046153 -0.994072 0.098440
-0.317368 0.856072 0.085264 0.004461 -0.721243 -0.692667
0.317368 0.858034 0.085264 -0.277711 -0.875789 0.394804
0.322980 0.873687 0.085264 -0.401004 -0.109437 0.909516
0.326842 0.853274 0.085264 0.322797 0.945439 0.044118
0.336316 0.856718 0.085264 0.324748 -0.945650 -0.016880
0.330214 0.873687 0.085264 -0.213352 -0.185487 -0.959206
0.345789 0.862469 0.085264 -0.625818 -0.779424 0.029170
-0.412105 0.877738 0.085264 0.279739 -0.955204 -0.096595
-0.393158 0.877594 0.085264 -0.070919 -0.732162 0.677429
-0.383684 0.889116 0.085264 0.515668 -0.810802 0.276924
-0.375531 0.894739 0.085264 0.412923 -0.825183 0.385444
-0.374211 0.894739 0.084589 0.329475 -0.935380 -0.128495
-0.373786 0.894739 0.085264 0.163807 -0.545886 -0.821691
0.326842 0.894739 0.079971 0.927410 -0.274719 0.253852
0.322100 0.894739 0.085264 -0.148713 0.298804 0.942656
0.331868 0.894739 0.085264 0.353656 0.350925 -0.867052
-0.374211 0.896738 0.085264 0.511397 -0.595660 -0.619404
0.317368 0.915792 0.084160 0.581663 -0.416498 0.698712
0.317368 0.912080 0.085264 -0.246365 -0.056244 0.967544
0.316636 0.915792 0.085264 -0.276655 -0.464139 0.841449
0.326842 0.915792 0.080422 0.823613 0.299024 0.481920
0.336316 0.903825 0.085264 0.190809 0.568172 -0.800483
0.338877 0.915792 0.085264 -0.225737 -0.113601 -0.967542
0.317368 0.917992 0.085264 -0.084220 -0.705816 0.703371
0.325418 0.936845 0.085264 0.060574 -0.504863 0.861071
0.326842 0.936845 0.084536 0.780222 -0.572856 0.251177
0.336316 0.930739 0.085264 0.141934 -0.625186 -0.767462
0.330676 0.936845 0.085264 0.118620 -0.782025 -0.611854
0.326842 0.948815 0.085264 0.984309 0.040574 0.171725
-0.084680 -0.957895 0.091579 -0.381108 -0.049322 0.923214
-0.052105 -0.963454 0.091579 -0.372219 0.517240 -0.770659
-0.051012 -0.957895 0.091579 -0.290454 0.774947 -0.561332
-0.033158 -0.957895 0.090593 -0.552491 0.826863 0.105126
-0.090000 -0.936842 0.088338 -0.657747 -0.112924 0.744726
-0.080526 -0.939192 0.091579 -0.879971 -0.172121 0.442747
-0.080526 -0.936842 0.090883 -0.879287 0.126569 0.459167
-0.076673 -0.936842 0.091579 -0.954639 -0.179940 0.237246
-0.042632 -0.946927 0.091579 -0.394564 0.895390 -0.206386
-0.033158 -0.954278 0.091579 -0.606800 0.781858 -0.143152
-0.023684 -0.943687 0.091579 -0.277930 0.820560 -0.499436
-0.019160 -0.936842 0.091579 0.003054 0.519930 -0.854203
-0.090000 -0.915789 0.089565 -0.749783 -0.430599 0.502404
-0.082068 -0.915789 0.091579 -0.870173 -0.251061 0.423989
-0.080526 -0.926368 0.091579 -0.874883 0.270700 0.401625
-0.021655 -0.915789 0.091579 -0.450761 0.219554 -0.865223
-0.080526 -0.914189 0.091579 -0.641260 -0.682742 0.350213
-0.071053 -0.905133 0.091579 -0.591265 -0.697031 0.405652
-0.064751 -0.894737 0.091579 -0.564993 -0.546411 0.618237
-0.018390 -0.894737 0.091579 -0.272420 -0.471784 -0.838574
-0.061579 -0.883354 0.091579 -0.621429 -0.321123 0.714637
-0.061579 -0.873684 0.089662 -0.597749 0.206187 0.774715
-0.059729 -0.873684 0.091579 -0.561223 -0.094137 0.822293
-0.033158 -0.873684 0.089293 -0.909741 -0.352140 -0.219930
-0.037643 -0.873684 0.091579 -0.518479 -0.357899 -0.776587
-0.033158 -0.881839 0.091579 -0.603438 -0.788513 -0.118781
-0.025431 -0.873684 0.091579 -0.462808 -0.772646 0.434542
-0.023082 -0.873684 0.091579 -0.072979 -0.574126 -0.815508
-0.061579 -0.864295 0.091579 -0.588961 0.311782 0.745598
-0.065770 -0.852631 0.091579 -0.608378 -0.011991 0.793557
-0.042632 -0.852631 0.089039 0.324614 -0.726631 -0.605503
-0.040398 -0.852631 0.091579 -0.176578 -0.418321 -0.890970
-0.023684 -0.871806 0.091579 -0.244569 -0.950064 -0.193815
-0.062267 -0.831579 0.091579 -0.111937 -0.047462 0.992581
-0.047836 -0.831579 0.091579 0.037989 -0.293289 -0.955269
-0.042632 -0.847762 0.091579 -0.062677 -0.663366 -0.745666
-0.033158 -0.831579 0.085732 0.038819 -0.822876 0.566893
-0.068432 -0.810526 0.091579 -0.152515 -0.034435 0.987701
-0.052105 -0.810526 0.087396 0.330550 0.256577 -0.908243
-0.042632 -0.814015 0.091579 -0.003296 -0.516631 -0.856202
-0.042632 -0.810526 0.087126 0.111225 -0.779474 -0.616482
-0.041796 -0.810526 0.091579 -0.087602 -0.430634 -0.898265
0.251052 -0.810526 0.086801 -0.857381 0.277144 0.433692
0.270000 -0.814292 0.091579 -0.359793 0.888372 -0.285211
0.268648 -0.810526 0.091579 -0.513995 0.030615 0.857247
0.271158 -0.810526 0.091579 -0.504770 0.249563 -0.826393
-0.064407 -0.789473 0.091579 -0.265850 -0.632381 0.727611
-0.058418 -0.789473 0.091579 -0.120387 -0.689781 -0.713939
-0.052105 -0.808272 0.091579 0.088704 -0.915835 -0.391634
-0.042632 -0.806515 0.091579 -0.198873 -0.866050 -0.458701
0.251052 -0.789473 0.085880 -0.980664 -0.194025 0.025550
0.270000 -0.806185 0.091579 -0.793205 -0.595054 0.129368
0.270000 -0.789473 0.088662 -0.985747 0.126956 0.110387
0.279473 -0.789473 0.088548 -0.977460 -0.191584 -0.088695
-0.061579 -0.786180 0.091579 -0.151089 -0.973595 0.171127
-0.127895 -0.415554 0.091579 -0.169024 0.970366 0.172687
-0.132852 -0.410526 0.091579 -0.193665 0.871454 0.450624
-0.118421 -0.411446 0.091579 -0.230591 0.972547 -0.031312
-0.108947 -0.415641 0.091579 -0.247370 0.952323 0.178573
-0.099474 -0.419416 0.091579 -0.320016 0.939016 0.125849
-0.090000 -0.420929 0.091579 -0.302713 0.951956 -0.046310
-0.080526 -0.415651 0.091579 -0.293194 0.934240 -0.203059
-0.071053 -0.412662 0.091579 -0.318244 0.904519 -0.283842
-0.069036 -0.410526 0.091579 -0.281304 0.893139 -0.350957
-0.165790 -0.389473 0.091532 0.059142 0.480829 0.874817
-0.165790 -0.389496 0.091579 -0.092170 0.720063 0.687760
-0.165808 -0.389473 0.091579 -0.051804 0.265897 0.962609
-0.156316 -0.409117 0.091579 -0.064168 0.991413 0.113939
-0.146842 -0.403345 0.091579 -0.096090 0.994107 -0.050172
-0.137369 -0.405565 0.091579 -0.161414 0.949255 0.269928
-0.061579 -0.405031 0.091579 -0.201109 0.936650 -0.286779
-0.052105 -0.398442 0.091579 -0.153152 0.895667 -0.417523
-0.046114 -0.389473 0.091579 -0.115949 0.526887 -0.841989
-0.165790 -0.389364 0.091579 -0.035202 -0.237546 0.970738
-0.164134 -0.368420 0.091579 -0.060716 0.099453 0.993188
-0.046404 -0.368420 0.091579 0.124598 0.233607 -0.964315
-0.165790 -0.358590 0.091579 0.149013 0.514400 0.844504
-0.172049 -0.347368 0.091579 0.656270 0.156139 0.738194
-0.042632 -0.351912 0.091579 -0.128858 0.670804 -0.730354
-0.033158 -0.347368 0.086877 -0.316456 0.812805 -0.489084
-0.040114 -0.347368 0.091579 0.140057 0.909513 -0.391369
-0.165790 -0.326315 0.087989 0.449888 -0.408132 0.794374
-0.169913 -0.326315 0.091579 0.491144 -0.242749 0.836570
-0.033158 -0.343991 0.091579 0.003247 0.960334 -0.278832
-0.023684 -0.334833 0.091579 0.103173 0.796513 -0.595754
-0.019690 -0.326315 0.091579 0.146966 0.414441 -0.898131
-0.165790 -0.310901 0.091579 0.472345 -0.178363 0.863178
-0.164652 -0.305262 0.091579 0.211614 0.035708 0.976701
-0.021066 -0.305262 0.091579 0.196798 0.175508 -0.964607
-0.194211 -0.284210 0.086601 0.229365 0.972699 0.035337
-0.194211 -0.290358 0.091579 -0.175476 0.982795 0.057641
-0.197414 -0.284210 0.091579 -0.173217 0.544945 0.820384
-0.191351 -0.284210 0.091579 -0.046173 0.208612 -0.976908
-0.163003 -0.284210 0.091579 0.440042 -0.441622 0.781878
-0.017821 -0.284210 0.091579 0.179224 0.285377 -0.941509
-0.383684 -0.263157 0.087281 -0.851909 0.415064 0.319333
-0.251053 -0.263157 0.085942 -0.818298 -0.538456 -0.201133
-0.222632 -0.263157 0.090382 -0.893355 -0.350914 0.280671
-0.213158 -0.263157 0.089603 -0.994678 -0.004162 -0.102946
-0.203684 -0.263157 0.089330 -0.970948 -0.047058 0.234618
-0.198462 -0.263157 0.091579 -0.736496 -0.193833 0.648076
-0.191291 -0.263157 0.091579 -0.452332 -0.373223 -0.810000
-0.160868 -0.263157 0.091579 0.287375 -0.134816 0.948283
-0.014211 -0.263157 0.085647 0.089066 0.217928 -0.971892
-0.014504 -0.263157 0.091579 0.065831 0.351559 -0.933848
-0.383684 -0.242104 0.088816 -0.772922 -0.544656 0.325487
-0.374211 -0.242104 0.087404 -0.933502 0.061906 -0.353189
-0.194211 -0.252828 0.091579 -0.680655 -0.709816 0.181303
-0.194211 -0.242104 0.087038 -0.922445 0.339106 -0.184670
-0.165790 -0.242104 0.088954 -0.434269 -0.812035 0.389883
-0.156399 -0.242104 0.091579 -0.671812 0.548474 0.497840
-0.014211 -0.262266 0.091579 0.105734 0.726712 -0.678756
-0.006245 -0.242104 0.091579 0.151366 0.425308 -0.892301
-0.317368 -0.222533 0.091579 -0.421555 0.861568 -0.282827
-0.319582 -0.221052 0.091579 -0.073589 0.833045 0.548288
-0.315915 -0.221052 0.091579 -0.465998 0.684365 -0.560794
-0.298421 -0.222485 0.091579 -0.238381 0.894472 0.378279
-0.300385 -0.221052 0.091579 -0.558562 0.645854 0.520462
-0.288947 -0.230423 0.091579 -0.149590 0.976623 -0.154369
-0.282737 -0.221052 0.091579 -0.138348 0.566081 -0.812657
-0.222632 -0.221266 0.091579 -0.610580 0.791668 -0.021293
-0.222773 -0.221052 0.091579 -0.686337 0.312428 0.656757
-0.213158 -0.221052 0.088880 -0.883798 -0.055736 -0.464538
-0.222377 -0.221052 0.091579 -0.903248 0.018595 -0.428716
-0.203684 -0.221052 0.085739 -0.926050 0.260687 0.272900
-0.194211 -0.221052 0.091462 -0.921257 -0.321535 -0.218861
-0.184737 -0.221052 0.085604 -0.797883 0.248821 -0.549064
-0.157363 -0.221052 0.091579 -0.199634 -0.372996 0.906102
-0.006782 -0.221052 0.091579 -0.049452 0.018995 -0.998596
-0.393158 -0.206560 0.091579 -0.195749 0.909483 0.366774
-0.397175 -0.199999 0.091579 -0.209054 0.590628 0.779394
-0.383684 -0.204286 0.091579 -0.312462 0.947060 -0.073790
-0.374211 -0.204039 0.091579 -0.396311 0.872746 0.285048
-0.364737 -0.215592 0.091579 -0.147992 0.988945 0.009310
-0.355263 -0.208439 0.091579 -0.180907 0.983318 0.018911
-0.345789 -0.217355 0.091579 -0.043943 0.997068 -0.062652
-0.336316 -0.199999 0.088359 -0.239845 0.734546 -0.634758
-0.337446 -0.199999 0.091579 -0.209241 0.411667 -0.886988
-0.331870 -0.199999 0.091579 -0.479827 0.612804 0.627884
-0.326842 -0.209382 0.091579 -0.276601 0.750554 0.600134
-0.307895 -0.199999 0.089852 -0.659197 0.689699 -0.299626
-0.310299 -0.199999 0.091579 -0.435434 0.374764 -0.818504
-0.305020 -0.199999 0.091579 -0.562155 0.306499 0.768140
-0.282319 -0.199999 0.091579 -0.456795 0.249345 -0.853912
-0.222632 -0.220607 0.091579 -0.833243 -0.487157 0.261503
-0.222632 -0.199999 0.088306 -0.862035 -0.489902 0.129967
-0.156316 -0.208566 0.091579 -0.570017 -0.188104 0.799811
-0.156316 -0.199999 0.089802 -0.605554 -0.375089 0.701864
-0.151439 -0.199999 0.091579 -0.818346 -0.466715 0.335391
-0.004737 -0.199999 0.088781 -0.432626 0.372122 -0.821194
-0.006981 -0.199999 0.091579 -0.321999 0.176624 -0.930119
-0.412105 -0.188876 0.091579 -0.218775 0.974548 0.048917
-0.402632 -0.190967 0.091579 -0.133492 0.965356 0.224206
-0.336316 -0.178946 0.085407 -0.028811 -0.459052 -0.887942
-0.338333 -0.178946 0.091579 -0.442389 0.130458 -0.887284
-0.332793 -0.178946 0.091579 -0.634430 0.305657 0.709980
-0.307895 -0.187714 0.091579 -0.973113 0.165318 -0.160380
-0.279474 -0.193608 0.091579 -0.079630 0.628446 -0.773766
-0.279474 -0.178946 0.087829 0.568597 0.507154 -0.647683
-0.275314 -0.178946 0.091579 0.002620 0.632742 -0.774358
-0.222632 -0.178946 0.086772 -0.536715 0.832081 0.139922
-0.146842 -0.195190 0.091579 -0.431628 -0.677463 0.595601
-0.142452 -0.178946 0.091579 0.030984 0.032977 0.998976
-0.004737 -0.189972 0.091579 -0.524897 0.370514 -0.766292
0.004737 -0.178946 0.087480 -0.731133 0.432467 -0.527652
-0.001989 -0.178946 0.091579 -0.547286 0.170890 -0.819314
-0.336316 -0.170211 0.091579 -0.702579 0.684819 -0.193403
-0.270000 -0.172132 0.091579 -0.008709 0.900572 -0.434619
-0.260769 -0.157894 0.091579 -0.249128 0.762231 -0.597444
-0.251053 -0.163739 0.091579 -0.223668 0.961072 -0.162215
-0.259856 -0.157894 0.091579 -0.119254 0.948526 0.293390
-0.241579 -0.157894 0.089338 -0.144200 0.957205 -0.250927
-0.244304 -0.157894 0.091579 -0.217987 0.887839 -0.405245
-0.222632 -0.171217 0.091579 -0.406930 0.911671 0.057122
-0.229040 -0.157894 0.091579 -0.200176 0.796862 0.570036
-0.213158 -0.157894 0.088710 -0.473961 0.704605 -0.528103
-0.216655 -0.157894 0.091579 -0.179678 0.726508 -0.663251
-0.184737 -0.157894 0.087122 -0.668610 -0.678767 -0.303703
-0.146842 -0.160028 0.091579 -0.304117 0.022668 0.952365
-0.147170 -0.157894 0.091579 -0.327850 -0.341122 0.880994
0.004737 -0.157894 0.088351 -0.796258 0.177913 -0.578204
-0.000453 -0.157894 0.091579 -0.670201 0.241302 -0.701857
-0.260526 -0.157449 0.091579 -0.311306 0.919235 -0.241031
-0.241579 -0.155576 0.091579 -0.244404 0.959782 -0.138150
-0.232105 -0.154905 0.091579 -0.044847 0.972976 0.226510
-0.213158 -0.153202 0.091579 -0.207336 0.964203 -0.165299
-0.203684 -0.153555 0.091579 -0.100800 0.994066 -0.040883
-0.194211 -0.147921 0.091579 -0.124148 0.637338 -0.760518
-0.192092 -0.136841 0.091579 -0.036378 -0.195380 -0.980053
-0.146842 -0.151910 0.091579 -0.350905 -0.169732 0.920900
-0.144318 -0.136841 0.091579 -0.345108 -0.616689 0.707528
0.004737 -0.136841 0.090718 -0.865504 0.198017 -0.460100
0.003411 -0.136841 0.091579 -0.704198 0.047896 -0.708386
0.014210 -0.136841 0.086772 -0.453882 0.236864 -0.859003
0.014210 -0.139020 0.091579 -0.872761 0.442166 -0.206826
0.010133 -0.136841 0.091579 -0.938110 0.075143 0.338088
0.015164 -0.136841 0.091579 -0.561899 -0.185050 -0.806242
-0.193541 -0.115788 0.091579 0.314232 0.915048 -0.252875
-0.146842 -0.115788 0.089466 -0.742075 -0.270504 0.613313
-0.143192 -0.115788 0.091579 -0.491759 -0.330052 0.805754
0.004737 -0.115788 0.090055 -0.776655 -0.074770 -0.625473
0.002708 -0.115788 0.091579 -0.590475 0.064768 -0.804453
0.012207 -0.132478 0.087493 -0.430017 -0.115578 -0.895392
0.014210 -0.134300 0.091579 -0.570023 -0.768717 -0.290084
0.014210 -0.115788 0.086286 -0.790418 0.016846 -0.612336
-0.184737 -0.112109 0.091579 0.212963 0.918046 -0.334421
-0.175263 -0.100560 0.091579 0.119923 0.848039 -0.516187
-0.170320 -0.094736 0.091579 0.111382 0.680828 -0.723925
-0.137369 -0.105023 0.091579 -0.242078 -0.567690 0.786846
-0.137369 -0.094736 0.088088 -0.464689 -0.193454 0.864083
-0.135368 -0.094736 0.091579 -0.097176 -0.255791 0.961836
0.004737 -0.094736 0.090208 -0.702900 0.253333 -0.664646
0.003313 -0.094736 0.091579 -0.353972 0.240831 -0.903717
0.014210 -0.094736 0.087083 -0.872807 0.314836 -0.372943
0.023684 -0.094736 0.085553 -0.948362 0.314493 0.041267
0.033158 -0.094736 0.087527 -0.802627 0.571889 0.169504
0.042631 -0.094736 0.087868 -0.750873 0.635121 -0.181138
0.071052 -0.094736 0.086388 -0.790829 0.606100 0.085042
-0.383817 -0.073683 0.091579 -0.394844 -0.138257 -0.908286
-0.383684 -0.073997 0.091579 -0.921235 -0.319126 -0.222450
-0.383374 -0.073683 0.091579 -0.331469 -0.768130 0.547818
-0.165790 -0.073683 0.089671 -0.625370 0.027872 -0.779830
-0.167894 -0.073683 0.091579 0.031203 -0.124782 -0.991693
-0.137369 -0.073683 0.088364 -0.669180 -0.369137 0.644931
-0.131742 -0.073683 0.091579 -0.339696 -0.520212 0.783573
0.004737 -0.085238 0.091579 -0.644392 0.409054 -0.646091
0.014210 -0.073683 0.091288 -0.767270 0.463077 -0.443686
0.013225 -0.073683 0.091579 -0.746200 0.592740 -0.303061
0.023684 -0.073683 0.086733 -0.907454 0.393989 -0.145944
0.033158 -0.073683 0.087973 -0.970838 -0.161750 -0.176948
0.080526 -0.073683 0.085278 -0.987071 0.107823 0.118596
-0.412105 -0.052630 0.091082 0.260772 -0.750308 0.607484
-0.412590 -0.052630 0.091579 0.031541 -0.404024 0.914204
-0.408808 -0.052630 0.091579 -0.456822 -0.863628 -0.213213
-0.402632 -0.054312 0.091579 0.048359 -0.998830 -0.000225
-0.393158 -0.052630 0.089760 0.273576 -0.553640 -0.786536
-0.395433 -0.052630 0.091579 -0.814190 -0.554734 0.171362
-0.392826 -0.052630 0.091579 -0.485837 -0.209466 -0.848579
-0.376889 -0.052630 0.091579 -0.480349 -0.137183 0.866282
-0.175840 -0.052630 0.091579 0.140613 0.005091 -0.990052
-0.175263 -0.055211 0.091579 0.120167 -0.448526 -0.885655
-0.127895 -0.061594 0.091579 -0.325238 -0.544734 0.772972
-0.127895 -0.052630 0.090555 -0.856932 -0.087296 0.507984
-0.124673 -0.052630 0.091579 -0.282767 -0.041600 0.958286
0.014210 -0.072744 0.091579 -0.631325 0.627561 -0.455627
0.023684 -0.052630 0.089567 -0.567579 0.633720 -0.525598
0.020520 -0.052630 0.091579 -0.490603 0.543207 -0.681347
0.033158 -0.052630 0.086137 -0.510542 0.827620 -0.233221
0.042631 -0.052630 0.088522 -0.659880 0.751308 -0.009798
0.052105 -0.052630 0.085462 -0.505462 0.861868 -0.041133
0.061579 -0.052630 0.088555 -0.710055 0.673257 0.206269
0.071052 -0.052630 0.087504 -0.701570 0.707905 -0.081666
0.080526 -0.052630 0.086841 -0.699471 0.468481 -0.539692
-0.415653 -0.031578 0.091579 -0.564114 0.250202 0.786877
-0.402632 -0.044845 0.091579 -0.842589 0.538222 0.018999
-0.385258 -0.031578 0.091579 -0.612822 -0.204327 -0.763348
-0.382027 -0.031578 0.091579 -0.761629 -0.131000 0.634634
-0.355263 -0.031578 0.088933 -0.387320 0.331729 0.860197
-0.357958 -0.031578 0.091579 -0.867000 0.014387 -0.498100
-0.355263 -0.037997 0.091579 -0.899866 -0.120863 0.419087
-0.354366 -0.031578 0.091579 -0.542496 0.137335 0.828756
-0.175263 -0.049671 0.091579 0.216211 0.592830 -0.775761
-0.165790 -0.044712 0.091579 0.128248 0.962550 -0.238850
-0.156316 -0.033023 0.091579 0.087972 0.853047 -0.514365
-0.154731 -0.031578 0.091579 0.208768 0.721938 -0.659713
-0.137369 -0.031578 0.087523 -0.817185 0.096883 0.568174
-0.127895 -0.031578 0.090359 -0.822486 0.210088 0.528564
-0.126320 -0.031578 0.091579 -0.571372 0.187980 0.798872
0.023684 -0.047105 0.091579 -0.520007 0.806579 -0.281111
0.033158 -0.045110 0.091579 -0.533039 0.845729 0.024738
0.042631 -0.047230 0.091579 -0.441979 0.870708 -0.215690
0.052105 -0.040923 0.091579 -0.538859 0.840884 -0.050454
0.061579 -0.043333 0.091579 -0.655973 0.753898 -0.036563
0.071052 -0.038641 0.091579 -0.688472 0.721542 -0.073374
0.080526 -0.037578 0.091579 -0.730759 0.475371 -0.489912
0.090000 -0.031578 0.085818 -0.814791 0.172247 -0.553576
0.082418 -0.031578 0.091579 -0.575784 -0.046359 -0.816287
0.326842 -0.031578 0.087222 -0.763869 0.643287 0.051825
-0.417237 -0.010525 0.091579 -0.290506 -0.338061 0.895166
-0.402632 -0.010525 0.086686 -0.572244 -0.818310 -0.053901
-0.406212 -0.010525 0.091579 -0.359423 -0.535424 -0.764288
-0.402632 -0.025511 0.091579 -0.820952 -0.510681 -0.255429
-0.393158 -0.015052 0.091579 -0.779164 -0.623455 0.064856
-0.393158 -0.010525 0.090293 -0.734190 -0.659182 -0.162614
-0.379122 -0.010525 0.091579 -0.208327 -0.516018 0.830858
-0.355263 -0.021026 0.091579 -0.888667 0.126768 0.440682
-0.156316 -0.010525 0.085605 0.261796 -0.074532 -0.962241
-0.146842 -0.022197 0.091579 0.001586 0.949004 -0.315261
-0.137369 -0.010525 0.087919 -0.346989 0.518886 -0.781253
-0.139090 -0.010525 0.091579 -0.153304 0.411767 -0.898302
-0.131730 -0.010525 0.091579 0.295866 -0.425853 0.855051
-0.127895 -0.020630 0.091579 -0.247457 0.011064 0.968836
0.071052 -0.010525 0.091462 -0.887354 0.341803 -0.309475
0.070787 -0.010525 0.091579 -0.689910 0.541286 -0.480659
0.071052 -0.011466 0.091579 -0.896894 -0.073663 -0.436067
0.080526 -0.019095 0.091579 -0.843150 -0.343326 -0.413793
0.080526 -0.010525 0.090534 -0.833286 0.213410 -0.509991
0.317368 -0.010525 0.085310 -0.737392 -0.220777 0.638366
0.326842 -0.010525 0.090531 -0.898334 -0.192976 -0.394659
0.412105 -0.010525 0.088396 -0.962503 -0.057111 0.265192
-0.412105 -0.001331 0.091579 -0.357678 -0.931562 0.065265
-0.374211 -0.002044 0.091579 -0.201294 -0.853331 0.480944
-0.364737 0.008259 0.091579 -0.432501 -0.882029 0.186998
-0.355263 -0.008102 0.091579 -0.555430 -0.830707 -0.037726
-0.345789 0.006669 0.091579 -0.500786 -0.736112 0.455360
-0.345789 0.010528 0.086864 -0.313706 -0.531362 0.786920
-0.341715 0.010528 0.091579 -0.725599 -0.597449 0.341410
-0.326842 0.010528 0.091226 -0.622410 -0.746922 -0.233909
-0.327706 0.010528 0.091579 -0.896183 -0.380594 -0.228047
-0.326842 0.010092 0.091579 -0.430982 -0.888781 -0.155956
-0.317368 0.007239 0.091579 -0.401672 -0.911495 -0.088524
-0.317368 0.010528 0.089846 -0.897996 -0.413487 -0.150439
-0.307895 0.005648 0.091579 -0.331325 -0.943275 0.021360
-0.307895 0.010528 0.088417 -0.868373 -0.489160 -0.081556
-0.298421 0.008029 0.091579 -0.369807 -0.897992 0.238441
-0.298421 0.010528 0.089237 -0.816177 0.345780 0.462915
-0.295616 0.010528 0.091579 -0.607207 -0.008976 0.794493
-0.165790 0.010528 0.089857 -0.620848 0.632463 -0.463184
-0.170019 0.010528 0.091579 -0.230534 0.265119 -0.936251
-0.165790 0.006760 0.091579 0.083198 -0.946609 -0.311463
-0.156316 0.000344 0.091579 0.135974 -0.989663 0.045579
-0.146842 0.008368 0.091579 -0.104502 -0.909804 -0.401667
-0.127895 -0.007833 0.091579 0.062803 -0.982972 0.172690
-0.118421 -0.007343 0.091579 -0.177948 -0.916216 0.359001
-0.114057 0.010528 0.091579 -0.232655 -0.063416 0.970490
0.071052 -0.010198 0.091579 -0.598094 0.761463 -0.249915
0.080526 -0.005420 0.091579 -0.738452 0.523994 -0.424404
0.090000 0.010528 0.090492 -0.773082 0.505037 -0.383774
0.086661 0.010528 0.091579 -0.696383 0.572258 -0.433095
0.099474 0.010528 0.086653 -0.676002 0.613643 -0.407999
0.108947 0.010528 0.086613 -0.701991 0.654873 -0.279910
-0.412105 0.028236 0.091579 -0.696735 0.600760 0.391978
-0.412809 0.031580 0.091579 -0.313646 -0.271459 0.909910
-0.410316 0.031580 0.091579 -0.361112 -0.427457 -0.828781
-0.345789 0.031580 0.086732 -0.459943 -0.723337 0.515011
-0.336316 0.022422 0.091579 -0.951185 -0.189830 0.243333
-0.336316 0.031580 0.090225 -0.696602 -0.629895 0.343480
-0.326842 0.012360 0.091579 -0.928628 0.311865 -0.200974
-0.332314 0.031580 0.091579 -0.761816 -0.565192 0.316536
-0.317368 0.016489 0.091579 -0.654752 0.751330 -0.082473
-0.307895 0.018994 0.091579 -0.535299 0.828736 0.163254
-0.298421 0.013573 0.091579 -0.346039 0.888636 0.300971
-0.165790 0.013564 0.091579 -0.158011 0.971108 -0.178834
-0.156316 0.019001 0.091579 -0.020179 0.999176 0.035222
-0.146842 0.011725 0.091579 -0.084382 0.995679 -0.038765
-0.137369 0.024162 0.091579 -0.194555 0.906676 -0.374283
-0.127895 0.025855 0.091579 -0.313786 0.871444 -0.376993
-0.118421 0.031580 0.086543 -0.763579 0.257958 0.591950
-0.123974 0.031580 0.091579 -0.202004 0.335430 -0.920153
-0.114777 0.031580 0.091579 -0.381489 -0.132977 0.914759
0.090000 0.015799 0.091579 -0.651970 0.655230 -0.381587
0.099474 0.023635 0.091579 -0.663291 0.735869 -0.136172
0.108947 0.025278 0.091579 -0.552781 0.786652 -0.274978
0.118421 0.031580 0.089140 -0.327436 0.743416 -0.583197
0.114302 0.031580 0.091579 -0.576496 0.743595 -0.338700
0.326842 0.031580 0.085412 -0.687343 -0.690678 0.224771
0.336316 0.031580 0.086571 -0.835998 -0.517466 -0.182584
0.412105 0.031580 0.088173 -0.932807 0.057589 0.355745
-0.412105 0.034000 0.091579 -0.262641 -0.790811 0.552845
-0.326842 0.034513 0.091579 -0.478418 -0.859878 0.178118
-0.317368 0.038054 0.091579 -0.332606 -0.937649 0.100936
-0.307895 0.038715 0.091579 -0.366972 -0.921244 0.129001
-0.298421 0.045922 0.091579 -0.440087 -0.848852 0.292871
-0.298421 0.052633 0.085958 -0.495887 -0.689804 0.527510
-0.290721 0.052633 0.091579 -0.454939 -0.769958 0.447431
-0.124291 0.052633 0.091579 -0.339467 -0.179196 -0.923391
-0.110390 0.052633 0.091579 -0.538892 -0.153747 0.828225
0.118421 0.036930 0.091579 -0.626934 0.565964 -0.535387
0.121816 0.052633 0.091579 -0.462114 0.098943 -0.881284
0.412105 0.052633 0.086766 -0.887729 -0.225907 0.401127
-0.288947 0.056018 0.091579 -0.638039 -0.590662 0.493988
-0.288947 0.073686 0.087558 -0.834885 -0.199780 0.512890
-0.279474 0.070087 0.091579 -0.644022 -0.718494 0.262684
-0.279474 0.073686 0.090594 -0.983115 -0.097782 0.154670
-0.270000 0.066234 0.091579 -0.585111 -0.795891 -0.155570
-0.270000 0.073686 0.088071 -0.851814 -0.445422 -0.275703
-0.260526 0.062727 0.091579 -0.574619 -0.810727 0.111958
-0.260526 0.073686 0.087090 -0.845697 -0.389718 0.364577
-0.251053 0.069556 0.091579 -0.414889 -0.863500 0.286767
