ply
format ascii 1.0
element vertex 841
property float x
property float y
property float z
property float nx
property float ny
property float nz
end_header
-0.175263 -0.284210 0.048776 0.528163 0.590824 -0.609894
-0.157144 -0.284210 0.053685 0.601612 -0.049300 -0.797266
-0.156316 -0.294531 0.053685 0.986437 -0.133378 -0.095662
-0.153616 -0.284210 0.053685 0.976235 -0.145881 0.160259
-0.146842 -0.284210 0.053000 0.964600 -0.254626 0.068642
-0.137369 -0.284210 0.052997 0.913717 -0.365713 -0.177132
-0.134823 -0.284210 0.053685 0.866638 -0.367755 -0.337186
-0.127895 -0.293157 0.053685 0.867584 -0.436023 0.239127
-0.123874 -0.284210 0.053685 0.795590 -0.208214 0.568932
-0.118421 -0.284210 0.051040 0.871310 -0.337611 0.356142
-0.108947 -0.284210 0.050947 0.966099 -0.239126 -0.097321
-0.099474 -0.284210 0.052965 0.973622 -0.106208 -0.201939
-0.090000 -0.284210 0.052020 0.949405 -0.263680 0.170596
-0.080526 -0.284210 0.049317 0.757710 -0.558430 0.337686
-0.071053 -0.284210 0.047753 0.858861 -0.164232 0.485165
-0.042632 -0.284210 0.051504 -0.997671 0.056429 -0.038331
-0.046531 -0.284210 0.053685 -0.533523 0.193301 -0.823400
-0.042632 -0.295970 0.053685 -0.876233 -0.388483 -0.285126
-0.033158 -0.288816 0.053685 -0.931760 -0.356060 -0.071019
-0.033158 -0.284210 0.053343 -0.939653 -0.244103 -0.239720
-0.023684 -0.284210 0.050022 -0.961093 -0.015882 -0.275768
-0.014211 -0.284210 0.049286 -0.977872 -0.072422 0.196269
-0.004737 -0.284210 0.052680 -0.965655 -0.105097 0.237625
0.004737 -0.284210 0.050635 -0.962506 0.100897 -0.251798
0.014210 -0.284210 0.048349 -0.850595 0.258540 -0.457869
-0.412105 -0.263157 0.053178 -0.780189 0.290150 0.554182
-0.417345 -0.263157 0.053685 -0.602792 0.731587 -0.318468
-0.412105 -0.270687 0.053685 -0.689091 -0.140207 0.710982
-0.411669 -0.263157 0.053685 -0.174056 0.251946 0.951960
-0.355263 -0.281619 0.053685 -0.374185 0.869153 -0.323356
-0.345789 -0.280164 0.053685 -0.541854 0.826501 0.152612
-0.307895 -0.281996 0.053685 -0.353109 0.879281 -0.319653
-0.298421 -0.280080 0.053685 -0.433081 0.894932 -0.107410
-0.288947 -0.277350 0.053685 -0.379441 0.901396 -0.208592
-0.279474 -0.270554 0.053685 -0.529674 0.829341 -0.177871
-0.270000 -0.267900 0.053685 -0.591763 0.801214 -0.088733
-0.260526 -0.265940 0.053685 -0.592421 0.804923 0.033708
-0.251053 -0.270544 0.053685 -0.617135 0.735049 0.280797
-0.241579 -0.282626 0.053685 -0.651246 0.742815 0.155256
-0.232105 -0.281313 0.053685 -0.739888 0.671490 0.040818
-0.158114 -0.263157 0.053685 0.220095 0.166647 -0.961138
-0.146842 -0.278317 0.053685 0.940872 -0.337898 0.024171
-0.137369 -0.277745 0.053685 0.948877 -0.266983 -0.168383
-0.118421 -0.263157 0.052635 0.949077 -0.077432 0.305379
-0.121106 -0.263157 0.053685 0.895926 -0.067345 0.439068
-0.108947 -0.263157 0.052146 0.999859 -0.015245 -0.007016
-0.099474 -0.263157 0.052662 0.981586 -0.120938 -0.147860
-0.092153 -0.263157 0.053685 0.977061 0.113460 -0.180216
-0.090000 -0.266433 0.053685 0.953229 -0.280503 -0.112571
-0.080526 -0.271496 0.053685 0.894387 -0.421433 0.149887
-0.075534 -0.263157 0.053685 0.890868 -0.109915 0.440764
-0.071053 -0.263157 0.051256 0.718866 -0.387897 0.576860
-0.042632 -0.275432 0.053685 -0.767829 0.588248 -0.253776
-0.033158 -0.267616 0.053685 -0.761175 0.621705 -0.184652
-0.023684 -0.263789 0.053685 -0.836244 0.485302 -0.255300
-0.014211 -0.263157 0.050579 -0.950722 -0.298092 0.085263
-0.023302 -0.263157 0.053685 -0.857190 0.259126 -0.445061
-0.005761 -0.263157 0.053685 -0.910718 0.216706 0.351613
-0.004737 -0.266558 0.053685 -0.859193 0.508980 0.052206
0.004737 -0.264642 0.053685 -0.894497 0.405681 -0.187878
0.014210 -0.263157 0.050501 -0.684565 0.724507 -0.080370
0.006281 -0.263157 0.053685 -0.908932 -0.286387 -0.303025
0.023684 -0.264315 0.053685 -0.729052 0.682900 -0.046154
0.021669 -0.263157 0.053685 -0.950990 0.101195 0.292194
0.033158 -0.263157 0.047872 -0.222785 0.506415 -0.833013
0.025319 -0.263157 0.053685 -0.894292 0.049537 -0.444733
0.402631 -0.263157 0.052117 -0.547392 0.526993 0.650107
-0.412105 -0.260401 0.053685 -0.373930 0.471796 0.798489
-0.156316 -0.259193 0.053685 0.439035 0.717579 -0.540675
-0.146842 -0.242104 0.052335 0.305299 0.869152 -0.389060
-0.146842 -0.245552 0.053685 0.069306 0.877950 -0.473708
-0.140826 -0.242104 0.053685 0.531390 0.823836 -0.197279
-0.118421 -0.247758 0.053685 0.955618 0.013661 0.294291
-0.117012 -0.242104 0.053685 0.889775 0.244917 0.385117
-0.108947 -0.242104 0.050743 0.961314 0.247445 0.121026
-0.099474 -0.242104 0.052151 0.905945 0.419043 0.060551
-0.090000 -0.261062 0.053685 0.908667 0.387219 -0.156158
-0.090000 -0.242104 0.047913 0.911314 0.311084 -0.269691
-0.080526 -0.242104 0.053270 0.871158 0.475922 -0.120757
-0.080526 -0.245902 0.053685 0.967785 0.204403 -0.147010
-0.071053 -0.242104 0.052992 0.504030 0.708074 0.494556
-0.027002 -0.242104 0.053685 -0.691511 0.361717 -0.625279
-0.023684 -0.260131 0.053685 -0.949626 -0.124087 -0.287774
-0.004737 -0.260928 0.053685 -0.868103 -0.446282 0.217321
0.004737 -0.262114 0.053685 -0.673547 -0.733730 -0.089305
0.023684 -0.260564 0.053685 -0.763165 -0.645969 -0.017400
0.402631 -0.259103 0.053685 -0.708596 0.698404 0.100616
0.396760 -0.242104 0.053685 -0.099567 0.451343 0.886778
0.412105 -0.245022 0.053685 -0.579399 0.691764 -0.430997
0.413083 -0.242104 0.053685 -0.682945 0.621062 -0.384536
-0.137369 -0.240501 0.053685 0.511782 0.840649 -0.177167
-0.127895 -0.235970 0.053685 0.740928 0.670290 -0.041675
-0.118421 -0.221052 0.047768 0.939309 0.240209 -0.244943
-0.118421 -0.239594 0.053685 0.825548 0.536547 0.174893
-0.108947 -0.221052 0.049175 0.976268 -0.033059 -0.214029
-0.099474 -0.221052 0.050410 0.934562 0.199222 0.294796
-0.080526 -0.221052 0.051058 0.986120 0.108153 -0.125978
-0.071053 -0.221052 0.047839 0.840263 0.011321 0.542061
-0.023684 -0.227687 0.053685 -0.352876 0.043886 -0.934640
-0.023153 -0.221052 0.053685 -0.400196 0.143461 -0.905131
0.023684 -0.221052 0.048230 -0.892243 0.355055 0.278996
0.033158 -0.221052 0.049776 -0.659423 0.581408 -0.476577
0.383684 -0.222064 0.053685 -0.669055 0.695221 0.262742
0.382543 -0.221052 0.053685 -0.430653 0.673697 0.600559
0.393158 -0.221052 0.048897 -0.234695 0.638938 0.732582
0.393158 -0.224715 0.053685 -0.538978 0.769902 0.341693
-0.108947 -0.199999 0.050824 0.965928 -0.245810 -0.081001
-0.099474 -0.199999 0.049697 0.903284 -0.425140 0.057732
-0.090000 -0.199999 0.049898 0.978989 0.059214 -0.195125
-0.080526 -0.199999 0.051341 0.941561 -0.000710 0.336843
-0.014211 -0.200064 0.053685 -0.249904 0.836725 -0.487277
-0.004737 -0.200691 0.053685 -0.418003 0.888285 -0.190325
-0.004087 -0.199999 0.053685 -0.683920 0.558652 -0.469214
0.014210 -0.199999 0.051170 -0.952643 0.224118 0.205530
0.023684 -0.199999 0.051588 -0.671219 0.583898 0.456649
0.027061 -0.199999 0.053685 -0.773977 0.366524 0.516351
0.033158 -0.210729 0.053685 -0.641800 0.692172 -0.330137
0.038652 -0.199999 0.053685 -0.716410 0.257127 -0.648569
0.380002 -0.199999 0.053685 -0.603253 0.098262 0.791474
-0.412105 -0.178946 0.052444 -0.901408 0.043345 0.430796
-0.416632 -0.178946 0.053685 -0.756339 0.026022 -0.653662
-0.412105 -0.195630 0.053685 -0.790464 -0.514501 0.332348
-0.410304 -0.178946 0.053685 -0.319247 0.019144 0.947478
-0.128833 -0.178946 0.053685 -0.292259 -0.112380 -0.949713
-0.127895 -0.181257 0.053685 -0.347016 -0.599246 -0.721446
-0.118421 -0.180807 0.053685 0.809521 -0.564848 0.160071
-0.108947 -0.178946 0.052759 0.827498 0.540556 0.151808
-0.116642 -0.178946 0.053685 0.886317 0.371563 0.276376
-0.099474 -0.178946 0.051554 0.897249 0.342422 0.278731
-0.090000 -0.178946 0.049517 0.930434 0.361483 -0.060194
-0.080526 -0.178946 0.051285 0.873339 0.434670 0.219866
-0.061579 -0.178946 0.048079 0.843884 0.533102 -0.060522
-0.042632 -0.178946 0.048122 0.785590 0.616473 -0.053009
0.004737 -0.178946 0.050675 -0.853469 0.262112 -0.450431
0.000172 -0.178946 0.053685 -0.749733 0.582989 -0.313089
0.014210 -0.178946 0.049392 -0.727591 -0.555848 0.402051
0.023684 -0.178946 0.052911 -0.842548 -0.369310 0.392076
0.026242 -0.178946 0.053685 -0.880895 -0.230695 0.413284
0.035423 -0.178946 0.053685 -0.431964 -0.277823 -0.858034
0.364737 -0.178946 0.052012 0.071437 0.967380 0.243050
0.364737 -0.179309 0.053685 -0.829677 0.471911 0.298222
0.364554 -0.178946 0.053685 -0.499054 0.556650 0.664143
0.365146 -0.178946 0.053685 -0.739233 0.548513 -0.390726
0.377591 -0.178946 0.053685 -0.699829 0.331071 0.632954
-0.412105 -0.170869 0.053685 -0.712891 0.591790 0.376259
-0.175263 -0.157894 0.052310 -0.873267 -0.384674 -0.299050
-0.178869 -0.157894 0.053685 -0.676852 -0.526836 -0.514116
-0.175263 -0.163251 0.053685 -0.722428 -0.582151 -0.373092
-0.165790 -0.175513 0.053685 -0.730969 -0.582773 -0.355049
-0.165790 -0.157894 0.051162 -0.870181 -0.423877 -0.251223
-0.156316 -0.177451 0.053685 -0.676812 -0.735646 -0.027399
-0.156316 -0.157894 0.048491 -0.972493 -0.156553 -0.172480
-0.146842 -0.176783 0.053685 -0.555581 -0.819205 0.142240
-0.146842 -0.157894 0.048643 -0.956006 -0.198300 0.216169
-0.137871 -0.157894 0.053685 -0.382622 -0.545367 0.745771
-0.130142 -0.157894 0.053685 -0.448562 -0.883509 -0.134926
-0.118421 -0.157894 0.048006 0.545968 0.708849 0.446601
-0.118421 -0.177391 0.053685 0.581540 0.789167 0.197551
-0.127655 -0.157894 0.053685 0.219599 -0.070103 0.973068
0.004737 -0.173530 0.053685 -0.738155 0.447068 -0.505230
0.006870 -0.157894 0.053685 -0.092518 0.318700 -0.943330
0.023684 -0.157894 0.049699 -0.604151 -0.616309 0.505138
0.033158 -0.169731 0.053685 -0.885530 -0.460401 -0.062185
0.033158 -0.157894 0.051366 -0.976113 -0.209031 -0.059245
0.355263 -0.159737 0.053685 -0.337391 0.563303 0.754226
0.354740 -0.157894 0.053685 -0.348422 0.019865 0.937127
0.374210 -0.170341 0.053685 -0.660051 0.750336 0.036460
-0.412105 -0.149906 0.053685 -0.098851 -0.991067 0.089523
-0.404207 -0.136841 0.053685 -0.081482 -0.163880 0.983109
-0.184737 -0.136841 0.051090 -0.868748 -0.187168 -0.458524
-0.188870 -0.136841 0.053685 -0.719457 0.018736 -0.694285
-0.184737 -0.147384 0.053685 -0.662149 -0.538314 -0.521323
-0.175263 -0.136841 0.048614 -0.963439 -0.267904 -0.003497
-0.165790 -0.136841 0.049729 -0.961768 -0.271758 -0.033897
-0.156316 -0.136841 0.048940 -0.993244 -0.098862 -0.060769
-0.146842 -0.136841 0.049010 -0.996943 -0.068847 -0.036954
-0.137369 -0.154688 0.053685 -0.599397 -0.347912 0.720888
-0.120130 -0.136841 0.053685 -0.338323 -0.202146 0.919062
0.014210 -0.136870 0.053685 -0.177533 0.538598 -0.823647
0.014210 -0.136841 0.053652 0.085915 0.359641 -0.929127
0.014224 -0.136841 0.053685 -0.250390 0.221596 -0.942444
0.042631 -0.136841 0.047795 -0.753265 -0.655770 0.050565
0.052105 -0.136841 0.047495 -0.735513 0.497528 -0.459877
0.165789 -0.136841 0.048198 -0.536891 0.843649 -0.001867
0.355263 -0.154677 0.053685 -0.477479 -0.363986 0.799705
0.355263 -0.136841 0.047573 -0.446807 0.272064 0.852258
0.359883 -0.136841 0.053685 -0.511896 0.111819 0.851739
0.374210 -0.136841 0.052698 -0.969522 0.173683 0.172806
0.373049 -0.136841 0.053685 -0.782651 -0.053336 -0.620171
0.374210 -0.139164 0.053685 -0.807663 -0.468475 0.358066
0.375077 -0.136841 0.053685 -0.746781 0.123041 0.653590
-0.418095 -0.115788 0.053685 -0.485096 0.769769 0.414895
-0.412105 -0.120784 0.053685 -0.577079 0.677427 0.456150
-0.184737 -0.115788 0.052443 -0.619653 0.353501 -0.700762
-0.186152 -0.115788 0.053685 -0.587992 0.316809 -0.744243
-0.175263 -0.115788 0.048081 -0.793734 0.445380 -0.414273
-0.165790 -0.115788 0.047747 -0.773959 0.633156 -0.010040
-0.156316 -0.115788 0.048099 -0.971170 -0.233327 0.048869
-0.146842 -0.115788 0.048523 -0.989958 -0.091764 -0.107525
-0.126857 -0.115788 0.053685 -0.506859 0.255822 0.823194
0.018234 -0.115788 0.053685 -0.275611 0.615823 -0.738106
0.156316 -0.115788 0.050050 -0.704958 0.229729 0.671014
0.165789 -0.115788 0.053004 -0.926278 0.332774 0.176835
0.175263 -0.115788 0.051173 -0.853257 0.455668 -0.253612
0.184737 -0.115788 0.049497 -0.723779 0.681451 -0.108478
0.194210 -0.115788 0.049938 -0.786445 0.615390 -0.052913
0.203684 -0.115788 0.048066 -0.685613 0.572793 -0.449271
0.345789 -0.115788 0.047650 -0.500328 0.488926 0.714579
0.348802 -0.115788 0.053685 -0.291553 0.505106 0.812321
0.355263 -0.127876 0.053685 -0.404896 0.718903 0.565012
0.374210 -0.134153 0.053685 -0.874880 0.482359 0.043754
-0.184737 -0.109494 0.053685 -0.669055 0.510126 -0.540497
-0.175263 -0.102636 0.053685 -0.476071 0.876978 -0.065310
-0.165790 -0.102373 0.053685 -0.645607 0.502202 -0.575312
-0.156316 -0.094736 0.047600 -0.639481 0.608061 -0.470452
-0.163348 -0.094736 0.053685 -0.264241 0.117005 -0.957333
-0.146842 -0.094736 0.049222 -0.970812 -0.022042 0.238825
-0.137369 -0.094736 0.048651 -0.894287 0.320950 -0.311837
-0.127194 -0.094736 0.053685 -0.318447 0.552815 0.770057
0.023684 -0.102069 0.053685 -0.397085 0.763085 -0.509926
0.033158 -0.103691 0.053685 -0.303603 0.900659 -0.310868
0.039336 -0.094736 0.053685 -0.413401 0.788534 -0.455318
0.156316 -0.094736 0.051781 -0.615998 0.515323 0.595809
0.160137 -0.094736 0.053685 -0.803949 0.451943 0.386540
0.165789 -0.109480 0.053685 -0.913216 0.405617 0.038873
0.175263 -0.105409 0.053685 -0.777584 0.616486 -0.123729
0.184737 -0.101271 0.053685 -0.656346 0.754373 0.011441
0.194210 -0.103545 0.053685 -0.751015 0.592474 -0.291465
0.203684 -0.094736 0.049244 -0.498963 0.512129 -0.699113
0.198042 -0.094736 0.053685 -0.531180 0.381877 -0.756318
0.270000 -0.094736 0.048569 -0.615682 0.652448 0.441868
0.279473 -0.094736 0.048976 -0.623824 0.781537 0.006619
0.288947 -0.094736 0.048363 -0.692062 0.707030 -0.145463
0.307895 -0.094736 0.049984 -0.928081 0.304021 0.215027
0.355263 -0.102317 0.053685 -0.662162 -0.635947 0.396375
0.361630 -0.094736 0.053685 -0.548786 -0.478070 0.685772
0.368119 -0.094736 0.053685 -0.738811 -0.348760 -0.576649
0.374210 -0.103142 0.053685 -0.563111 -0.786159 0.254678
0.383025 -0.094736 0.053685 -0.858278 -0.384480 0.339904
-0.412105 -0.085672 0.053685 -0.541099 -0.809157 -0.229077
-0.402632 -0.084751 0.053685 -0.649455 -0.736377 0.189623
-0.402632 -0.073683 0.049121 -0.876923 -0.098153 0.470502
-0.394326 -0.073683 0.053685 -0.643905 -0.572768 0.507270
-0.156316 -0.080981 0.053685 -0.494240 0.817120 -0.296717
-0.146842 -0.073683 0.051110 -0.392866 0.583476 -0.710783
-0.147886 -0.073683 0.053685 -0.287637 0.674607 -0.679831
-0.137369 -0.073683 0.053005 -0.424299 0.609181 0.669977
-0.127895 -0.092989 0.053685 -0.197394 0.762749 0.615832
-0.136585 -0.073683 0.053685 -0.516634 0.389169 0.762651
0.042631 -0.091194 0.053685 -0.188316 0.818337 -0.543011
0.052105 -0.076814 0.053685 -0.341194 0.888581 -0.306610
0.061579 -0.074340 0.053685 -0.230357 0.894037 -0.384231
0.062005 -0.073683 0.053685 -0.501083 0.556186 -0.663003
0.146842 -0.073683 0.050274 -0.624654 0.498688 0.600931
0.152655 -0.073683 0.053685 -0.507027 0.498081 0.703448
0.156316 -0.089086 0.053685 -0.672826 0.469176 0.571995
0.203684 -0.080900 0.053685 -0.558749 0.367541 -0.743447
0.206028 -0.073683 0.053685 -0.388134 0.226333 -0.893379
0.260526 -0.073683 0.048644 -0.604944 0.216781 0.766191
0.266500 -0.073683 0.053685 -0.601889 0.237712 0.762380
0.270000 -0.081205 0.053685 -0.498484 0.821045 0.278206
0.279473 -0.079741 0.053685 -0.502602 0.857103 -0.112983
0.288947 -0.075091 0.053685 -0.346097 0.911837 -0.220839
0.298421 -0.073683 0.050363 -0.712945 -0.408181 -0.570174
0.291311 -0.073683 0.053685 -0.714210 0.284367 -0.639562
0.361154 -0.073683 0.053685 -0.592196 -0.291143 0.751359
0.374210 -0.073683 0.052335 -0.359542 -0.926400 0.111862
0.373288 -0.073683 0.053685 -0.648432 -0.635747 -0.418762
0.374920 -0.073683 0.053685 -0.801323 -0.085003 0.592162
-0.402632 -0.052630 0.050780 -0.936256 0.011703 0.351123
-0.393158 -0.066344 0.053685 -0.576308 -0.215746 0.788240
-0.393158 -0.052630 0.052488 -0.676775 -0.450350 0.582374
-0.392123 -0.052630 0.053685 -0.281053 -0.480948 0.830481
-0.156316 -0.052630 0.052488 -0.679277 0.313090 -0.663745
-0.157619 -0.052630 0.053685 -0.421355 0.280069 -0.862567
-0.156316 -0.056146 0.053685 -0.486167 -0.112895 -0.866543
-0.137369 -0.054664 0.053685 -0.525792 -0.373507 0.764222
-0.137531 -0.052630 0.053685 -0.662700 -0.326236 0.674091
0.071052 -0.052630 0.049208 -0.425371 0.569655 -0.703244
0.067277 -0.052630 0.053685 -0.342022 0.510559 -0.788892
0.127895 -0.052630 0.051827 -0.509689 0.815158 0.275198
0.137368 -0.052630 0.053353 -0.488074 0.853297 0.183486
0.138061 -0.052630 0.053685 -0.579433 0.750487 0.317848
0.146842 -0.060537 0.053685 -0.466215 0.721910 0.511360
0.208702 -0.052630 0.053685 -0.376897 0.393133 -0.838687
0.222631 -0.052630 0.048498 -0.813594 0.512133 -0.275292
0.270000 -0.067259 0.053685 -0.513011 -0.764805 0.389736
0.270000 -0.052630 0.049610 -0.996805 -0.062811 0.049334
0.279473 -0.066710 0.053685 -0.461065 -0.886935 -0.027656
0.279473 -0.052630 0.048423 -0.998425 -0.009960 -0.055205
0.288947 -0.071832 0.053685 -0.426904 -0.824980 -0.370352
0.288947 -0.052630 0.049192 -0.934160 -0.037721 -0.354854
0.364737 -0.066954 0.053685 -0.538153 -0.833277 0.126652
0.383684 -0.067238 0.053685 -0.401264 -0.899473 0.173016
0.393158 -0.067682 0.053685 -0.331488 -0.933235 0.138518
0.402631 -0.056038 0.053685 -0.493823 -0.821096 0.286253
0.402631 -0.052630 0.052562 -0.815969 -0.426251 0.390520
0.412105 -0.059342 0.053685 -0.626922 -0.776880 0.058536
0.412105 -0.052630 0.052391 -0.931592 -0.360300 0.048159
-0.419469 -0.031578 0.053685 -0.412786 0.040234 -0.909939
-0.402632 -0.031578 0.052167 -0.995643 -0.093087 0.005382
-0.393158 -0.031578 0.047756 -0.925721 0.377920 -0.014741
-0.388011 -0.031578 0.053685 -0.114860 0.029618 0.992940
-0.156316 -0.046387 0.053685 -0.683067 0.425106 -0.593889
-0.146842 -0.031578 0.051123 -0.783231 0.530218 -0.324682
-0.151094 -0.031578 0.053685 -0.104586 0.782204 -0.614181
-0.137369 -0.051548 0.053685 -0.836483 -0.181529 0.517053
-0.137369 -0.031578 0.052520 -0.905288 0.407308 -0.120637
-0.127895 -0.042133 0.053685 -0.504225 -0.842178 0.191035
-0.127895 -0.031578 0.047449 -0.967022 0.246796 0.062927
-0.118421 -0.034919 0.053685 -0.382044 -0.766588 0.516125
-0.118421 -0.031578 0.052259 -0.556017 -0.481336 0.677613
-0.117013 -0.031578 0.053685 -0.378667 -0.440495 0.813988
0.071052 -0.041621 0.053685 -0.280723 0.848445 -0.448705
0.080526 -0.037033 0.053685 -0.232380 0.935784 -0.265155
0.087188 -0.031578 0.053685 -0.193616 0.883883 -0.425750
0.108947 -0.033163 0.053685 -0.304757 0.937062 0.170406
0.104497 -0.031578 0.053685 -0.199265 0.957659 0.207804
0.118421 -0.037577 0.053685 -0.403518 0.864297 0.300273
0.127895 -0.047306 0.053685 -0.603890 0.756946 0.249699
0.137368 -0.051927 0.053685 -0.528956 0.797378 0.290506
0.213158 -0.034047 0.053685 -0.479429 0.708970 -0.517213
0.222631 -0.033676 0.053685 -0.641571 0.722202 -0.258479
0.232105 -0.031578 0.050364 -0.934837 0.120751 -0.333913
0.224392 -0.031578 0.053685 -0.689437 0.375920 -0.619161
0.241579 -0.031578 0.050553 -0.931299 0.305857 0.197822
0.251052 -0.031578 0.052448 -0.867075 0.461560 0.187467
0.260526 -0.031578 0.053200 -0.743353 0.657882 0.120901
0.263347 -0.031578 0.053685 -0.575803 0.763228 0.293144
0.270000 -0.035303 0.053685 -0.560471 0.826304 0.055616
0.279473 -0.031578 0.053077 -0.887838 0.453368 -0.078754
0.276216 -0.031578 0.053685 -0.671195 0.630828 -0.389299
0.288714 -0.031578 0.053685 -0.816010 0.547948 0.184068
0.288947 -0.031686 0.053685 -0.539212 0.823709 -0.175370
0.298421 -0.031578 0.050385 -0.886843 -0.066536 -0.457256
0.289024 -0.031578 0.053685 -0.688750 0.378114 -0.618590
0.307895 -0.031578 0.047858 -0.950464 0.210797 -0.228436
0.317368 -0.031578 0.047492 -0.928225 0.330696 0.170407
0.326842 -0.031578 0.049321 -0.976470 0.214776 -0.019420
0.383684 -0.031578 0.048810 -0.773544 0.456971 0.439097
0.393158 -0.031578 0.047839 -0.933841 0.181300 0.308338
0.402631 -0.031578 0.051563 -0.860652 0.321494 0.394866
0.412105 -0.031578 0.053553 -0.979957 0.043877 0.194315
-0.412105 -0.010525 0.049138 -0.857541 -0.269532 -0.438151
-0.404986 -0.010525 0.053685 -0.502529 0.295886 0.812352
-0.402632 -0.019446 0.053685 -0.415129 0.868599 0.270564
-0.393158 -0.016742 0.053685 -0.102825 0.707282 0.699413
-0.146842 -0.027847 0.053685 -0.140512 0.985548 -0.094607
-0.137369 -0.029262 0.053685 -0.249570 0.948043 -0.197304
-0.127895 -0.012909 0.053685 -0.352578 0.395200 -0.848237
-0.118421 -0.010525 0.048711 -0.972960 0.223363 0.058800
-0.126789 -0.010525 0.053685 -0.389457 -0.645805 -0.656703
-0.113548 -0.010525 0.053685 -0.412764 -0.277794 0.867442
0.090000 -0.028023 0.053685 -0.287068 0.907980 -0.305229
0.099474 -0.028230 0.053685 -0.484782 0.864291 0.134121
0.222631 -0.010525 0.052991 -0.735670 0.028326 -0.676748
0.219460 -0.010525 0.053685 -0.766582 0.440941 -0.466822
0.222631 -0.019747 0.053685 -0.836642 -0.155421 -0.525237
0.251052 -0.010525 0.049438 -0.838386 -0.130614 0.529197
0.257124 -0.010525 0.053685 -0.528801 -0.152761 0.834885
0.260526 -0.028102 0.053685 -0.829329 0.464687 0.310289
0.279473 -0.010525 0.053213 -0.975224 -0.185080 -0.121178
0.272150 -0.010525 0.053685 -0.992067 -0.065335 -0.107400
0.288947 -0.031224 0.053685 -0.880415 -0.384729 -0.277223
0.288947 -0.010525 0.051982 -0.859532 0.020933 -0.510654
0.326842 -0.010525 0.047824 -0.975286 -0.165646 -0.146216
0.355263 -0.010525 0.047735 -0.808747 -0.023940 0.587669
0.364373 -0.010525 0.053685 -0.678237 -0.201614 0.706644
0.364737 -0.011691 0.053685 -0.902269 0.387056 -0.189999
0.374210 -0.010525 0.049067 -0.989242 -0.061221 0.132863
0.365045 -0.010525 0.053685 -0.694757 -0.194819 -0.692357
0.383684 -0.010525 0.053643 -0.963170 0.006739 0.268810
0.393158 -0.010525 0.048911 -0.927788 -0.124104 0.351862
0.398552 -0.010525 0.053685 -0.727835 0.192243 0.658254
0.402631 -0.018787 0.053685 -0.829951 0.481653 0.281409
0.412105 -0.029699 0.053685 -0.952670 0.288118 0.096992
-0.402632 0.002363 0.053685 -0.439894 -0.261617 0.859098
-0.402632 0.010528 0.052271 -0.560166 0.551228 0.618354
-0.400821 0.010528 0.053685 -0.169875 0.423622 0.889768
-0.133165 0.010528 0.053685 -0.130162 0.308252 -0.942358
-0.127895 -0.009090 0.053685 -0.146676 -0.771986 -0.618485
-0.110655 0.010528 0.053685 -0.405355 0.276796 0.871247
0.222631 -0.006298 0.053685 -0.664828 0.478526 -0.573600
0.225799 0.010528 0.053685 -0.361659 0.361613 -0.859325
0.241579 0.010528 0.049804 -0.995905 0.088977 -0.016001
0.251052 0.010528 0.048595 -0.994996 0.086291 0.050368
0.260526 0.005558 0.053685 -0.817204 -0.143053 0.558313
0.260526 0.010528 0.051555 -0.875609 0.149510 0.459298
0.270000 -0.006285 0.053685 -0.901363 -0.224598 -0.370271
0.270000 0.010528 0.053211 -0.974790 -0.217154 -0.051263
0.279473 0.010528 0.052178 -0.932921 0.357336 0.044366
0.284421 0.010528 0.053685 -0.652201 0.199054 0.731445
0.288947 0.000660 0.053685 -0.712244 0.535391 -0.453945
0.298421 0.010528 0.047927 -0.612640 0.312559 -0.725933
0.292377 0.010528 0.053685 -0.326468 0.304251 -0.894902
0.317368 0.010479 0.053685 -0.787612 0.388927 -0.477915
0.317286 0.010528 0.053685 -0.524017 0.779966 0.342140
0.317412 0.010528 0.053685 -0.611397 0.363450 -0.702921
0.336316 0.010528 0.048283 -0.659115 0.747652 0.081139
0.345789 0.010528 0.048086 -0.819897 0.528575 -0.219949
0.364737 -0.009768 0.053685 -0.677333 -0.734698 0.037948
0.383684 0.010528 0.049488 -0.953007 -0.250511 0.170356
0.402190 0.010528 0.053685 -0.605305 0.268376 0.749386
0.412105 0.010528 0.053180 -0.994125 0.032516 -0.103242
0.405397 0.010528 0.053685 -0.973166 0.192335 -0.126315
0.412105 0.005081 0.053685 -0.920194 -0.378519 -0.099830
-0.412105 0.018955 0.053685 -0.223047 0.967443 0.119599
-0.402632 0.013044 0.053685 -0.268362 0.853403 0.446861
-0.127895 0.019531 0.053685 -0.015467 0.926348 -0.376351
-0.118421 0.021256 0.053685 -0.264866 0.956837 0.119621
0.232105 0.025449 0.053685 -0.597365 0.640818 -0.482190
0.241579 0.031580 0.052073 -0.654519 0.672878 -0.344732
0.239046 0.031580 0.053685 -0.774741 0.259956 -0.576367
0.251052 0.031580 0.052001 -0.954406 0.129931 0.268752
0.256287 0.031580 0.053685 -0.820600 0.273640 0.501734
0.260526 0.022183 0.053685 -0.848994 0.470019 0.241435
0.270000 0.031580 0.053326 -0.979958 0.181604 0.081863
0.268031 0.031580 0.053685 -0.924975 -0.071219 -0.373296
0.271339 0.031580 0.053685 -0.884250 0.237417 0.402162
0.279473 0.020370 0.053685 -0.861598 0.468610 0.195071
0.288947 0.028161 0.053685 -0.755314 0.594465 -0.275884
0.288947 0.031580 0.053098 -0.873826 0.373277 -0.311596
0.287671 0.031580 0.053685 -0.820342 0.299606 -0.487108
0.298421 0.031580 0.052325 -0.863769 -0.400833 0.305344
0.307895 0.026561 0.053685 -0.528294 0.715180 0.457627
0.301641 0.031580 0.053685 -0.745702 -0.228838 0.625749
0.326842 0.019224 0.053685 -0.390109 0.911660 -0.129197
0.336316 0.019503 0.053685 -0.331341 0.938929 -0.092873
0.345789 0.024566 0.053685 -0.318211 0.945053 0.074950
0.355263 0.021009 0.053685 -0.269283 0.962831 -0.021043
0.364737 0.023665 0.053685 -0.257729 0.957305 -0.130932
0.374210 0.025914 0.053685 -0.369366 0.929057 0.020530
0.383684 0.021657 0.053685 -0.417749 0.908158 0.027102
0.393158 0.024482 0.053685 -0.355740 0.907947 0.221543
0.412105 0.012955 0.053685 -0.771689 0.629238 -0.092496
0.241579 0.052633 0.051678 -0.656132 -0.710180 -0.255214
0.235286 0.052633 0.053685 -0.810567 -0.436723 -0.390197
0.251052 0.052633 0.050460 -0.752386 -0.658468 -0.018306
0.260526 0.037267 0.053685 -0.735656 -0.661422 0.146052
0.260526 0.052633 0.051294 -0.881358 -0.450012 0.143865
0.270000 0.052633 0.052486 -0.767421 -0.629218 0.123085
0.279473 0.050502 0.053685 -0.967378 -0.181784 0.176449
0.279473 0.052633 0.053491 -0.793164 -0.605047 0.069345
0.288947 0.052633 0.052525 -0.502854 -0.768050 -0.396531
0.298421 0.052633 0.048580 -0.710762 -0.691227 -0.130468
0.307895 0.036111 0.053685 -0.382122 -0.696414 0.607446
0.311756 0.052633 0.053685 -0.329281 -0.392215 0.858919
0.345789 0.052633 0.052231 -0.458074 -0.845702 0.273781
0.343163 0.052633 0.053685 -0.516138 -0.783692 -0.345586
0.345789 0.049211 0.053685 -0.544544 -0.742133 0.390782
0.346901 0.052633 0.053685 -0.393456 -0.655379 0.644726
-0.090000 0.073686 0.047831 -0.483864 -0.699676 -0.525671
-0.093985 0.073686 0.053685 -0.390600 0.026188 -0.920188
-0.090000 0.054318 0.053685 -0.895941 -0.442488 -0.038661
-0.085556 0.073686 0.053685 -0.496447 -0.303888 0.813137
0.232105 0.073686 0.053035 -0.529163 -0.309514 -0.790055
0.230591 0.073686 0.053685 -0.619927 0.292147 -0.728244
0.232105 0.063289 0.053685 -0.593289 -0.371282 -0.714253
0.315250 0.073686 0.053685 -0.287323 -0.152595 0.945600
0.336316 0.073686 0.051774 -0.901227 0.191762 -0.388609
0.328381 0.073686 0.053685 -0.817353 0.292306 -0.496479
0.336316 0.062292 0.053685 -0.683322 -0.629165 -0.370436
0.345789 0.073686 0.049081 -0.960080 0.271828 -0.066003
0.355263 0.064781 0.053685 -0.520299 -0.819035 0.241807
0.355263 0.073686 0.050096 -0.957102 -0.247502 0.150658
0.364737 0.063030 0.053685 -0.683228 -0.691931 0.233303
0.364737 0.073686 0.050930 -0.925561 0.273863 0.261411
0.370061 0.073686 0.053685 -0.842850 -0.137224 0.520360
-0.093423 0.094738 0.053685 -0.295048 0.078258 -0.952272
-0.081517 0.094738 0.053685 -0.670371 -0.430204 0.604588
0.232105 0.078080 0.053685 -0.568820 0.418712 -0.707901
0.236809 0.094738 0.053685 -0.550694 -0.045852 -0.833447
0.251052 0.094738 0.048377 -0.804459 -0.524789 0.278286
0.260526 0.094738 0.049475 -0.962957 -0.244389 0.113963
0.270000 0.094738 0.050753 -0.931405 -0.363757 0.012908
0.279473 0.094738 0.048240 -0.901678 -0.373414 -0.218035
0.288947 0.094738 0.047927 -0.827705 -0.550456 0.109100
0.298421 0.094738 0.049929 -0.809095 -0.508795 0.294096
0.307895 0.094738 0.053291 -0.785381 -0.329681 0.523915
0.308543 0.094738 0.053685 -0.614066 -0.475174 0.630184
0.336316 0.079033 0.053685 -0.547233 0.756120 -0.358913
0.345789 0.094738 0.052567 -0.863592 0.106124 -0.492896
0.343634 0.094738 0.053685 -0.592807 0.104434 -0.798545
0.355263 0.094738 0.052005 -0.910193 0.283949 0.301531
0.358998 0.094738 0.053685 -0.794053 0.116948 0.596493
0.364737 0.083988 0.053685 -0.762261 0.506279 0.403285
-0.093575 0.115791 0.053685 -0.112125 -0.269229 -0.956527
-0.080526 0.096751 0.053685 -0.514366 -0.533392 0.671506
-0.080526 0.115791 0.048302 -0.565898 -0.672896 0.476414
-0.073135 0.115791 0.053685 -0.277060 -0.649434 0.708148
0.232105 0.115791 0.052458 -0.495560 -0.438043 -0.750025
0.230343 0.115791 0.053685 -0.370684 -0.406974 -0.834845
0.232105 0.109446 0.053685 -0.382274 -0.458112 -0.802496
0.317368 0.106414 0.053685 -0.328021 -0.859038 0.393010
0.317368 0.115791 0.050325 -0.824362 0.015491 0.565852
0.326842 0.109313 0.053685 -0.440045 -0.892223 0.101485
0.326842 0.115791 0.051589 -0.911050 -0.388111 0.139131
0.336316 0.111337 0.053685 -0.632038 -0.738369 -0.235244
0.336316 0.115791 0.052438 -0.980610 0.037684 -0.192313
0.345789 0.115791 0.050040 -0.950562 -0.307252 -0.045027
0.355263 0.115791 0.051492 -0.791704 -0.603704 -0.093527
0.364737 0.101349 0.053685 -0.685770 -0.693467 0.220960
0.364737 0.115791 0.048421 -0.939531 -0.330236 0.090699
0.374210 0.109679 0.053685 -0.688295 -0.680794 0.250540
0.374210 0.115791 0.051380 -0.863506 -0.351053 0.362104
0.383684 0.115089 0.053685 -0.814639 -0.564100 0.134740
0.383684 0.115791 0.053558 -0.726182 -0.679696 0.103309
0.387635 0.115791 0.053685 -0.893946 -0.446413 0.039706
-0.099474 0.136844 0.052644 -0.453536 -0.187539 -0.871283
-0.101276 0.136844 0.053685 -0.439994 -0.378040 -0.814550
-0.099474 0.134351 0.053685 -0.169806 -0.625892 -0.761200
-0.071053 0.121133 0.053685 -0.375190 -0.638250 0.672212
-0.071053 0.136844 0.049072 -0.624410 -0.160366 0.764457
-0.065241 0.136844 0.053685 -0.544193 -0.380739 0.747590
0.232105 0.136844 0.049311 -0.648413 -0.319414 -0.691040
0.226701 0.136844 0.053685 -0.350858 -0.249829 -0.902488
0.307895 0.136844 0.049565 -0.709898 0.172942 0.682741
0.313307 0.136844 0.053685 -0.662475 0.371116 0.650691
0.317368 0.126626 0.053685 -0.695343 0.631261 0.343521
0.326842 0.136844 0.053144 -0.986804 0.161305 -0.014074
0.324984 0.136844 0.053685 -0.851984 -0.228525 -0.471063
0.328633 0.136844 0.053685 -0.731154 -0.153530 0.664712
0.336316 0.122136 0.053685 -0.793893 0.511133 -0.329357
0.345789 0.136844 0.048519 -0.808238 0.131336 -0.574022
0.339192 0.136844 0.053685 -0.316411 -0.147249 -0.937124
0.355263 0.136844 0.048403 -0.968995 -0.247002 0.006251
0.364737 0.136844 0.048672 -0.856680 -0.460026 0.233400
0.374210 0.136844 0.051647 -0.995201 -0.063748 0.074235
0.383684 0.136844 0.050074 -0.996372 -0.021486 -0.082354
0.393158 0.117458 0.053685 -0.775957 -0.363627 0.515428
0.393158 0.136844 0.051417 -0.769958 -0.362084 0.525414
0.395362 0.136844 0.053685 -0.455351 -0.144492 0.878509
-0.412909 0.157896 0.053685 -0.194667 -0.645139 0.738851
-0.402632 0.157896 0.049213 -0.628342 -0.776578 0.045956
-0.409978 0.157896 0.053685 -0.488694 -0.724453 -0.486155
-0.402632 0.148812 0.053685 -0.389117 -0.916054 0.097124
-0.393158 0.155370 0.053685 -0.354872 -0.691661 0.629024
-0.393158 0.157896 0.051474 -0.608255 -0.067599 0.790858
-0.392037 0.157896 0.053685 -0.226718 -0.197010 0.953827
-0.108947 0.157896 0.052287 -0.958623 -0.267895 -0.096301
-0.110480 0.157896 0.053685 -0.420017 -0.274273 -0.865078
-0.108947 0.151942 0.053685 -0.641087 -0.149096 -0.752847
-0.099474 0.143560 0.053685 -0.555737 0.162053 -0.815411
-0.104776 0.157896 0.053685 -0.650784 -0.365412 0.665548
-0.097693 0.157896 0.053685 -0.462568 -0.088305 -0.882175
-0.080526 0.157896 0.047791 -0.970880 -0.054001 0.233402
-0.071053 0.157896 0.048648 -0.769590 0.366085 0.523175
-0.062435 0.157896 0.053685 -0.583907 0.110562 0.804257
0.224673 0.157896 0.053685 -0.193503 -0.190234 -0.962480
0.307895 0.157896 0.047557 -0.551002 -0.407927 0.728005
0.313566 0.157896 0.053685 -0.638463 -0.298548 0.709390
0.320023 0.157896 0.053685 -0.419779 -0.521044 -0.743168
0.336316 0.147729 0.053685 -0.749283 -0.581643 -0.316647
0.345789 0.157896 0.049168 -0.677452 -0.696625 -0.236162
0.374210 0.157896 0.052190 -0.732966 -0.508528 0.451841
0.383684 0.157896 0.048959 -0.753257 -0.550767 -0.359527
0.397687 0.157896 0.053685 -0.347597 -0.516308 0.782689
-0.412105 0.160825 0.053685 -0.441282 -0.687877 0.576277
-0.412105 0.178949 0.048178 -0.802652 -0.526433 0.280390
-0.402632 0.178949 0.051047 -0.674131 -0.589404 0.445141
-0.397210 0.178949 0.053685 -0.532515 -0.598988 0.598032
-0.393158 0.169676 0.053685 -0.433526 -0.017708 0.900967
-0.108947 0.178949 0.048943 -0.728455 -0.610215 -0.311434
-0.115478 0.178949 0.053685 -0.433886 -0.299619 -0.849689
-0.099474 0.171072 0.053685 -0.926803 -0.372594 -0.047004
-0.099474 0.178949 0.051956 -0.949850 -0.303216 -0.076449
-0.071053 0.178949 0.051485 -0.682169 -0.037336 0.730241
-0.068520 0.178949 0.053685 -0.493879 0.207221 0.844478
0.213158 0.178949 0.051498 -0.837393 0.171840 -0.518887
0.212127 0.178949 0.053685 -0.138312 -0.004738 -0.990377
0.213158 0.174912 0.053685 -0.353614 -0.410874 -0.840321
0.217991 0.178949 0.053685 -0.455201 -0.683630 0.570475
0.223466 0.178949 0.053685 -0.184235 -0.198436 -0.962643
0.317368 0.164755 0.053685 -0.648089 -0.759669 0.053708
0.317368 0.178949 0.050263 -0.990462 -0.086124 -0.107554
0.402631 0.166614 0.053685 -0.290514 -0.886423 0.360355
0.402631 0.178949 0.048039 -0.498554 -0.837261 0.224584
0.412105 0.168683 0.053685 -0.543413 -0.836412 0.071533
-0.393158 0.181948 0.053685 -0.250539 -0.909147 0.332688
-0.383684 0.189043 0.053685 -0.086845 -0.961638 0.260213
-0.374211 0.193670 0.053685 -0.110274 -0.980287 0.163940
-0.364737 0.196733 0.053685 -0.060456 -0.982621 0.175505
-0.357507 0.200001 0.053685 -0.080433 -0.942137 0.325435
-0.203684 0.200001 0.050923 -0.399468 -0.883709 -0.243893
-0.206260 0.200001 0.053685 -0.283738 -0.607194 -0.742164
-0.203684 0.195726 0.053685 -0.205159 -0.962253 -0.178826
-0.196358 0.200001 0.053685 -0.309486 -0.892330 0.328581
-0.175263 0.200001 0.050834 -0.482627 -0.875557 0.021696
-0.179071 0.200001 0.053685 -0.341737 -0.840591 -0.420264
-0.175263 0.197764 0.053685 -0.203075 -0.979054 0.014595
-0.171761 0.200001 0.053685 -0.308457 -0.878416 0.365019
-0.137369 0.200001 0.049148 -0.881321 -0.374997 0.287488
-0.144474 0.200001 0.053685 -0.716380 -0.490838 -0.495861
-0.137369 0.194785 0.053685 -0.498210 -0.866440 0.032699
-0.132643 0.200001 0.053685 -0.511407 -0.703167 0.493982
-0.117318 0.200001 0.053685 -0.157292 -0.297284 -0.941744
-0.066031 0.200001 0.053685 -0.543902 -0.400008 0.737675
0.213158 0.194103 0.053685 -0.274549 -0.274727 -0.921492
0.214274 0.200001 0.053685 -0.297863 -0.575038 -0.761977
0.222631 0.184167 0.053685 -0.231120 -0.493189 -0.838659
0.317368 0.200001 0.051855 -0.769485 -0.238880 -0.592309
-0.355263 0.221054 0.051035 0.415556 -0.261572 0.871145
-0.358511 0.221054 0.053685 0.126839 -0.008290 0.991889
-0.210350 0.221054 0.053685 -0.305635 -0.487289 -0.818008
-0.194211 0.203562 0.053685 -0.571595 -0.717060 0.398879
-0.194211 0.221054 0.050554 -0.841553 -0.532948 0.088067
-0.184737 0.208791 0.053685 -0.617363 -0.776267 -0.127563
-0.184737 0.221054 0.049757 -0.821435 -0.540224 -0.182764
-0.175263 0.221054 0.047887 -0.809184 -0.586945 0.026776
-0.165790 0.209746 0.053685 -0.557545 -0.828755 -0.048051
-0.165790 0.221054 0.049578 -0.714805 -0.661793 -0.226018
-0.156316 0.201230 0.053685 -0.468896 -0.879076 -0.085807
-0.147090 0.221054 0.053685 -0.396122 -0.690059 0.605727
-0.137369 0.221054 0.052674 -0.617572 -0.706411 -0.345816
-0.145146 0.221054 0.053685 -0.663288 -0.733096 -0.150395
-0.127895 0.206374 0.053685 -0.515764 -0.842254 0.156833
-0.118421 0.204299 0.053685 -0.505180 -0.685312 -0.524539
-0.108947 0.221054 0.047746 -0.890239 -0.455469 0.004724
-0.061579 0.215104 0.053685 -0.595440 -0.569865 0.566307
-0.061579 0.221054 0.050878 -0.477174 -0.620430 0.622392
-0.056849 0.221054 0.053685 -0.722877 -0.591296 0.357518
0.211286 0.221054 0.053685 -0.141469 -0.497691 -0.855740
0.213158 0.204405 0.053685 -0.166309 -0.309403 -0.936275
0.402631 0.217521 0.053685 -0.462808 0.030275 0.885942
0.401657 0.221054 0.053685 -0.115617 0.107651 0.987443
0.409850 0.221054 0.053685 -0.295165 0.893557 -0.338281
-0.355263 0.233503 0.053685 -0.166028 0.140764 0.976023
-0.355263 0.242107 0.051248 -0.180249 0.171839 0.968494
-0.354454 0.242107 0.053685 -0.286114 0.154464 0.945664
-0.251053 0.242107 0.049829 -0.610684 -0.391863 -0.688119
-0.257674 0.242107 0.053685 -0.720731 -0.594675 -0.356242
-0.251053 0.236839 0.053685 -0.437939 -0.849170 -0.295161
-0.241579 0.229808 0.053685 -0.418197 -0.864135 -0.279970
-0.232105 0.221959 0.053685 -0.445195 -0.891577 -0.083024
-0.222632 0.234860 0.053685 -0.524777 -0.838586 0.146230
-0.222632 0.242107 0.052195 -0.767041 -0.639835 0.047533
-0.213158 0.227487 0.053685 -0.507823 -0.772536 -0.381188
-0.146842 0.221463 0.053685 -0.304248 -0.908010 0.288011
-0.052105 0.234277 0.053685 -0.509880 -0.446194 0.735482
-0.052105 0.242107 0.052576 -0.440734 -0.339796 0.830838
-0.051231 0.242107 0.053685 -0.464484 -0.215726 0.858904
0.203684 0.242107 0.053304 -0.245335 -0.585843 -0.772398
0.203403 0.242107 0.053685 -0.412953 -0.652048 -0.635848
0.203684 0.241776 0.053685 -0.168455 -0.731942 -0.660215
0.298421 0.242107 0.049640 -0.778118 -0.624073 -0.071170
0.317368 0.242107 0.048419 -0.554584 -0.831828 -0.022331
0.336316 0.242107 0.048222 -0.481679 -0.860085 -0.168044
0.383684 0.242107 0.050157 -0.247804 -0.710440 -0.658686
0.398865 0.242107 0.053685 -0.224661 0.002325 0.974434
0.412105 0.223181 0.053685 -0.001357 0.808605 -0.588350
0.419253 0.242107 0.053685 0.041705 -0.124320 -0.991365
-0.364737 0.263160 0.052244 0.968568 -0.189230 0.161454
-0.364737 0.248667 0.053685 -0.371867 0.726178 0.578256
-0.369199 0.263160 0.053685 0.692467 0.210355 0.690102
-0.355263 0.262757 0.053685 0.508013 -0.460645 0.727825
-0.355263 0.263160 0.053634 0.890832 -0.207693 0.404081
-0.260526 0.263160 0.047951 -0.704245 -0.596450 -0.385078
-0.267826 0.263160 0.053685 -0.472744 -0.647556 -0.597648
-0.260526 0.247014 0.053685 -0.733952 -0.548908 -0.400018
-0.222632 0.263160 0.047418 -0.789217 -0.471124 -0.393927
-0.047841 0.263160 0.053685 -0.398564 -0.296600 0.867856
0.199749 0.263160 0.053685 -0.419339 -0.128072 -0.898750
0.402631 0.254619 0.053685 -0.353062 -0.703969 0.616258
0.402631 0.263160 0.047930 -0.640742 -0.409192 0.649624
0.412105 0.258463 0.053685 -0.371395 -0.899714 -0.229305
0.412105 0.263160 0.048921 -0.134519 -0.310465 -0.941019
-0.374211 0.284212 0.051151 0.382309 -0.868763 0.314786
-0.374211 0.275063 0.053685 0.549225 0.056335 0.833774
-0.375589 0.284212 0.053685 0.182037 -0.559022 0.808923
-0.364737 0.273355 0.053685 0.926906 -0.375219 0.007442
-0.369969 0.284212 0.053685 0.486257 -0.716281 -0.500495
-0.355263 0.264766 0.053685 0.063400 -0.096932 0.993270
-0.354931 0.284212 0.053685 0.075555 0.128160 0.988871
-0.279474 0.284212 0.051698 -0.666735 -0.592929 -0.451553
-0.284644 0.284212 0.053685 -0.497075 -0.552026 -0.669465
-0.279474 0.272700 0.053685 -0.647275 -0.660064 -0.381248
-0.270000 0.266509 0.053685 -0.520856 -0.784707 -0.336071
-0.052105 0.284212 0.048190 -0.497412 -0.539557 0.679308
-0.042632 0.283082 0.053685 -0.520089 0.058418 0.852112
-0.042632 0.284212 0.051651 -0.189185 0.523089 0.831016
-0.042510 0.284212 0.053685 -0.221800 0.198313 0.954713
0.198489 0.284212 0.053685 -0.382815 -0.074658 -0.920803
0.383684 0.284212 0.053515 -0.447953 -0.889207 0.093004
0.412105 0.284212 0.053495 -0.504989 -0.709437 0.491615
-0.374211 0.286517 0.053685 0.154003 -0.984669 0.081911
-0.355263 0.305265 0.052722 0.699107 -0.701206 0.139855
-0.355263 0.287211 0.053685 0.524419 0.066765 0.848839
-0.356623 0.305265 0.053685 0.326619 -0.270142 0.905728
-0.351572 0.305265 0.053685 0.455593 -0.531634 -0.714003
-0.345789 0.299888 0.053685 0.302858 -0.933719 0.190908
-0.340579 0.305265 0.053685 0.204321 -0.665715 0.717689
-0.303658 0.305265 0.053685 -0.095715 -0.539939 -0.836244
-0.298421 0.296828 0.053685 -0.330332 -0.881446 -0.337541
-0.288947 0.295762 0.053685 -0.410615 -0.848986 -0.332592
-0.288947 0.305265 0.052446 -0.728851 -0.623526 -0.282827
-0.279474 0.305265 0.047838 -0.878877 -0.243507 -0.410218
-0.052105 0.292246 0.053685 -0.452464 0.696093 0.557432
-0.054932 0.305265 0.053685 -0.175279 -0.066118 0.982296
-0.042632 0.284743 0.053685 -0.131945 0.612907 0.779060
0.198000 0.305265 0.053685 -0.279978 -0.308026 -0.909248
-0.355263 0.326318 0.052739 0.982260 -0.058848 0.178051
-0.359172 0.326318 0.053685 0.608255 -0.215240 0.764001
-0.350654 0.326318 0.053685 0.430205 -0.619953 -0.656187
-0.336316 0.323934 0.053685 0.261454 0.493928 0.829263
-0.333965 0.326318 0.053685 0.242781 -0.946198 0.213931
-0.325133 0.326318 0.053685 -0.081450 -0.688035 -0.721092
-0.317368 0.310226 0.053685 0.181695 -0.939111 0.291647
-0.307895 0.319604 0.053685 -0.022002 -0.944477 -0.327840
-0.052105 0.315276 0.053685 -0.349294 -0.503709 0.790108
-0.052105 0.326318 0.049983 -0.682084 -0.113594 0.722397
-0.047561 0.326318 0.053685 -0.254458 -0.455681 0.852998
0.194210 0.326318 0.048951 0.001230 -0.423515 -0.905888
0.194442 0.326318 0.053685 -0.074471 -0.405971 -0.910847
-0.355263 0.328981 0.053685 0.243262 -0.969555 0.028058
-0.326842 0.329350 0.053685 -0.099010 -0.984838 -0.142444
-0.052105 0.347370 0.047962 -0.556661 0.335444 0.760004
-0.046512 0.347370 0.053685 -0.318323 0.226609 0.920499
0.193914 0.347370 0.053685 0.000493 -0.273489 -0.961875
0.194210 0.340958 0.053685 -0.433834 0.220562 -0.873579
-0.052105 0.368423 0.053149 -0.420940 0.434518 0.796243
-0.051708 0.368423 0.053685 -0.218339 0.438002 0.872056
0.186637 0.368423 0.053685 -0.203983 -0.476667 -0.855090
-0.412105 0.380110 0.053685 0.273784 0.894069 0.354517
-0.402632 0.371778 0.053685 0.395265 0.917815 -0.037174
-0.393158 0.389475 0.050834 0.404134 0.833232 -0.377359
-0.393158 0.388080 0.053685 0.319267 0.893495 -0.315809
-0.383684 0.389475 0.049891 0.240362 0.918909 0.312782
-0.383684 0.385033 0.053685 0.170750 0.977957 0.120183
-0.374211 0.382772 0.053685 0.302648 0.946431 -0.112571
-0.364870 0.389475 0.053685 0.411399 0.660751 -0.627821
-0.061579 0.389475 0.052272 -0.302614 -0.227254 0.925624
-0.061249 0.389475 0.053685 -0.629905 0.040518 0.775615
-0.052105 0.372144 0.053685 -0.439365 0.288879 0.850592
0.181798 0.389475 0.053685 -0.441392 0.038635 -0.896482
0.184737 0.377122 0.053685 -0.342021 -0.421685 -0.839764
-0.412105 0.410528 0.049590 0.834991 0.184281 0.518488
-0.393158 0.410528 0.050368 0.910637 0.363270 -0.196916
-0.383684 0.410528 0.050123 0.955352 0.126224 0.267152
-0.368615 0.410528 0.053685 0.341677 0.093093 -0.935196
-0.355263 0.410528 0.052930 0.988933 -0.146163 0.025465
-0.355263 0.396895 0.053685 0.958377 -0.066411 -0.277675
-0.357030 0.410528 0.053685 0.747860 -0.171027 0.641448
-0.353499 0.410528 0.053685 0.680359 -0.110321 -0.724528
-0.127895 0.410528 0.048773 -0.814694 0.579874 -0.004545
-0.099474 0.410528 0.050530 -0.865055 0.495063 -0.081192
-0.080526 0.410528 0.050435 -0.645957 0.761791 0.049132
-0.056486 0.410528 0.053685 -0.381674 0.535966 0.753037
0.184737 0.397450 0.053685 -0.243980 0.668814 -0.702254
0.191594 0.410528 0.053685 -0.652253 0.089512 -0.752697
-0.364737 0.428254 0.053685 0.658715 0.090442 -0.746937
-0.364737 0.431581 0.049050 0.735458 -0.069009 -0.674047
-0.355263 0.431581 0.052423 0.975995 0.018096 -0.217039
-0.349638 0.431581 0.053685 0.065467 -0.039606 -0.997068
-0.194211 0.431581 0.047514 -0.737823 -0.104023 0.666931
-0.186888 0.431581 0.053685 -0.613940 -0.297146 0.731288
-0.184737 0.427170 0.053685 -0.657255 0.752769 0.036797
-0.182089 0.431581 0.053685 -0.494719 -0.556599 -0.667421
-0.146842 0.419489 0.053685 -0.512407 0.818371 0.260209
-0.152300 0.431581 0.053685 -0.366763 0.210085 0.906283
-0.137369 0.419803 0.053685 -0.380643 0.921765 -0.073890
-0.127895 0.431581 0.048629 -0.107432 0.208817 -0.972036
-0.127895 0.428715 0.053685 -0.497431 0.679105 -0.539795
-0.127264 0.431581 0.053685 -0.658809 -0.021555 -0.752001
-0.108947 0.431581 0.053292 -0.812726 -0.224945 0.537472
-0.107139 0.431581 0.053685 -0.932234 0.234674 0.275441
-0.099474 0.425444 0.053685 -0.562169 0.816901 0.128992
-0.090000 0.423696 0.053685 -0.456728 0.846327 0.274099
-0.080526 0.415525 0.053685 -0.289775 0.952939 -0.089093
-0.071053 0.420828 0.053685 -0.237325 0.971280 0.017093
-0.061579 0.417199 0.053685 -0.222109 0.919967 0.322999
0.187237 0.431581 0.053685 -0.778588 -0.093068 -0.620596
0.402631 0.431581 0.048096 -0.381177 -0.272869 0.883315
0.408283 0.431581 0.053685 -0.577144 0.308134 0.756280
0.412105 0.427722 0.053685 -0.372709 0.927467 -0.029899
0.414896 0.431581 0.053685 -0.277583 -0.638274 -0.718021
-0.366252 0.452633 0.053685 0.507344 0.141805 -0.849996
-0.364737 0.441802 0.053685 0.815455 -0.446976 -0.367758
-0.355263 0.447201 0.053685 0.396862 -0.742505 -0.539618
-0.184737 0.434822 0.053685 -0.530911 -0.831783 0.162080
-0.146842 0.441716 0.053685 -0.476305 -0.801909 0.360660
-0.146842 0.452633 0.048984 -0.693238 -0.719655 0.038958
-0.137369 0.447480 0.053685 -0.519448 -0.854054 0.027670
-0.137369 0.452633 0.048047 -0.642006 -0.746882 -0.173192
-0.127895 0.434399 0.053685 -0.601749 -0.417967 -0.680589
-0.102628 0.452633 0.053685 -0.557021 -0.390514 0.732957
0.184737 0.452633 0.050261 0.332440 -0.496975 -0.801561
0.187500 0.452633 0.053685 -0.157179 -0.325917 -0.932241
0.412105 0.434426 0.053685 -0.200199 -0.979357 0.027924
-0.364737 0.456285 0.053685 0.377338 0.847848 -0.372517
-0.355263 0.453789 0.053685 0.512265 0.759505 -0.400919
-0.346765 0.473686 0.053685 -0.022797 0.622837 -0.782019
-0.099474 0.462213 0.053685 -0.659822 -0.666689 0.346643
-0.099474 0.473686 0.048352 -0.744459 -0.351857 0.567431
-0.090000 0.458013 0.053685 -0.511817 -0.847911 0.138168
-0.090000 0.473686 0.049096 -0.908994 -0.275370 0.312893
-0.081488 0.473686 0.053685 -0.585364 -0.472756 0.658673
0.174195 0.473686 0.053685 -0.057518 -0.717769 -0.693902
0.175263 0.471099 0.053685 -0.180515 -0.691858 -0.699104
0.184737 0.460116 0.053685 -0.265996 -0.777631 -0.569680
-0.345789 0.477329 0.053685 0.138833 0.595832 -0.791018
-0.340962 0.494739 0.053685 0.012119 0.269241 -0.962996
-0.165790 0.494739 0.048414 -0.761343 -0.643021 -0.082949
-0.146842 0.494739 0.047729 -0.813151 -0.581043 -0.034270
-0.099474 0.494739 0.048706 -0.987059 -0.112962 0.113819
-0.090000 0.494739 0.048343 -0.918058 0.110267 0.380803
-0.080526 0.492846 0.053685 -0.825085 -0.141770 0.546933
-0.080526 0.494739 0.053631 -0.942086 -0.244555 0.229494
-0.071053 0.483850 0.053685 -0.883184 -0.463294 0.073108
-0.071053 0.494739 0.052618 -0.922798 -0.361235 -0.133994
-0.061579 0.489650 0.053685 -0.788830 -0.340658 0.511565
-0.061579 0.494739 0.051592 -0.752502 -0.098184 0.651230
-0.059786 0.494739 0.053685 -0.546730 -0.136343 0.826133
0.130221 0.494739 0.053685 -0.110250 -0.962724 -0.246998
0.137368 0.491372 0.053685 -0.159533 -0.985310 -0.060935
0.146610 0.494739 0.053685 -0.159324 -0.969430 0.186604
0.146941 0.494739 0.053685 -0.108257 -0.882193 -0.458274
0.156316 0.485223 0.053685 -0.196437 -0.958783 -0.205300
0.165789 0.485302 0.053685 -0.115920 -0.955414 -0.271562
-0.336316 0.515791 0.052251 -0.391974 0.505366 -0.768741
-0.338376 0.515791 0.053685 -0.264623 0.534356 -0.802769
-0.090000 0.515791 0.050670 -0.736913 -0.602123 0.307258
-0.080526 0.515791 0.050234 -0.984911 -0.168860 0.037907
-0.071053 0.515791 0.050964 -0.767958 -0.636345 0.072838
-0.061579 0.515791 0.051188 -0.782818 -0.596986 0.175509
-0.052927 0.515791 0.053685 -0.884562 -0.346114 0.312659
0.061579 0.515791 0.051824 -0.448558 -0.878332 0.165314
0.058895 0.515791 0.053685 -0.404532 -0.811128 -0.422404
0.061579 0.513835 0.053685 -0.403516 -0.914972 -0.000826
0.063670 0.515791 0.053685 -0.408679 -0.788970 0.458812
0.090000 0.515791 0.053283 -0.380895 -0.913045 -0.145833
0.089048 0.515791 0.053685 -0.441734 -0.863345 -0.243939
0.090000 0.515314 0.053685 -0.343769 -0.926772 -0.151382
0.099474 0.513789 0.053685 -0.300428 -0.917718 -0.259880
0.099474 0.515791 0.051217 -0.372388 -0.880033 -0.294735
0.108947 0.504029 0.053685 -0.283049 -0.951557 -0.120094
0.118421 0.507183 0.053685 -0.305912 -0.950326 -0.057427
0.127895 0.496416 0.053685 -0.119570 -0.848740 -0.515114
0.146842 0.494870 0.053685 -0.201018 -0.975834 -0.085675
0.412105 0.515791 0.047438 -0.999600 0.004210 0.027966
-0.336316 0.519416 0.053685 -0.366886 0.677906 -0.637054
-0.326842 0.536844 0.050933 -0.845279 0.356953 -0.397604
