ply
format ascii 1.0
element vertex 825
property float x
property float y
property float z
property float nx
property float ny
property float nz
end_header
0.336316 -0.406870 -0.078947 -0.324131 0.849457 -0.416368
0.345789 -0.404361 -0.078947 -0.433301 0.897972 -0.076792
0.355263 -0.402198 -0.078947 -0.153189 0.946765 -0.283143
0.364737 -0.389473 -0.083643 0.139000 0.009077 -0.990251
0.364737 -0.394004 -0.078947 -0.210728 0.972759 -0.096613
0.374210 -0.397898 -0.078947 -0.067865 0.691218 -0.719452
0.375992 -0.389473 -0.078947 -0.149441 0.009277 -0.988727
-0.143992 -0.368420 -0.078947 0.268449 -0.280126 -0.921664
-0.137369 -0.383417 -0.078947 0.182856 -0.647138 -0.740119
-0.071053 -0.368420 -0.080045 0.856249 0.444241 0.263606
-0.071053 -0.380916 -0.078947 0.660581 0.612410 0.434267
-0.074973 -0.368420 -0.078947 0.663354 0.548300 0.509244
-0.061579 -0.368420 -0.081654 0.925295 0.093986 0.367419
-0.061579 -0.381973 -0.078947 0.670947 0.644341 0.366954
0.023684 -0.377739 -0.078947 -0.480506 0.839138 -0.254873
0.033158 -0.376174 -0.078947 -0.623291 0.772884 -0.118991
0.042631 -0.372212 -0.078947 -0.430916 0.884537 0.178622
0.052105 -0.383022 -0.078947 -0.469412 0.817828 0.332880
0.108947 -0.389220 -0.078947 -0.447687 0.893819 0.025768
0.355715 -0.368420 -0.078947 0.074345 -0.437965 -0.895912
0.364737 -0.386806 -0.078947 0.040521 -0.997547 -0.057081
0.374210 -0.383020 -0.078947 -0.131966 -0.767923 -0.626801
-0.140486 -0.347368 -0.078947 0.173203 -0.487370 -0.855846
-0.099474 -0.347368 -0.079310 0.882634 -0.403979 0.240330
-0.099474 -0.349259 -0.078947 0.572968 0.586103 0.572880
-0.100498 -0.347368 -0.078947 0.245175 -0.843610 0.477715
-0.090000 -0.347368 -0.079879 0.850221 -0.518003 0.093796
-0.090000 -0.353717 -0.078947 0.582984 0.793238 0.175794
-0.080526 -0.347368 -0.080918 0.930726 -0.248272 0.268534
-0.080526 -0.358826 -0.078947 0.670626 0.684192 0.286604
-0.071053 -0.347368 -0.083151 0.934026 -0.274645 0.228397
-0.061579 -0.347368 -0.083813 0.967317 -0.150364 0.204176
0.364737 -0.347368 -0.079576 -0.582977 0.663839 -0.468460
0.364378 -0.347368 -0.078947 -0.181179 0.394837 -0.900710
0.365578 -0.347368 -0.078947 -0.475889 0.571697 0.668351
0.374210 -0.358378 -0.078947 -0.061060 0.976771 -0.205401
0.379312 -0.347368 -0.078947 -0.086687 0.693064 -0.715645
0.413076 -0.347368 -0.078947 -0.118453 0.750364 0.650326
-0.154736 -0.326315 -0.078947 0.060932 -0.633261 -0.771536
-0.146842 -0.338919 -0.078947 -0.014041 -0.845931 -0.533108
-0.099474 -0.346684 -0.078947 0.261099 -0.956276 0.131773
-0.090000 -0.345454 -0.078947 0.331598 -0.941501 0.060157
-0.080526 -0.343609 -0.078947 0.218546 -0.952882 0.210363
-0.071053 -0.335846 -0.078947 0.253068 -0.925554 0.281613
-0.061579 -0.330970 -0.078947 0.480244 -0.807733 0.341953
-0.052105 -0.326315 -0.081320 0.647650 -0.640381 0.412871
-0.057183 -0.326315 -0.078947 0.347574 -0.785254 0.512415
0.363966 -0.326315 -0.078947 -0.001145 -0.021205 -0.999775
0.365689 -0.326315 -0.078947 -0.408368 0.214476 0.887263
0.383684 -0.330815 -0.078947 -0.587284 0.521151 -0.619272
0.393158 -0.326315 -0.080932 -0.311307 0.950105 0.019705
0.388235 -0.326315 -0.078947 -0.694737 0.675321 -0.247551
0.402631 -0.326315 -0.079397 -0.772783 0.629922 0.077487
0.412105 -0.326315 -0.079176 -0.652311 0.622840 0.431926
0.412273 -0.326315 -0.078947 -0.394521 0.380839 0.836250
-0.156316 -0.305262 -0.081381 0.285479 -0.239175 -0.928061
-0.154698 -0.305262 -0.078947 -0.191681 0.242352 -0.951065
-0.052105 -0.316134 -0.078947 0.327204 -0.769008 0.549148
-0.044071 -0.305262 -0.078947 0.001396 -0.641925 0.766766
0.364737 -0.309993 -0.078947 -0.716598 -0.311965 0.623831
0.393158 -0.324258 -0.078947 -0.400058 0.915891 -0.033126
0.402631 -0.324692 -0.078947 -0.791093 0.611463 0.016884
0.412105 -0.325275 -0.078947 -0.275598 0.490159 0.826916
-0.159979 -0.284210 -0.078947 -0.094633 -0.461064 -0.882307
-0.156316 -0.300149 -0.078947 -0.123833 -0.515083 -0.848148
-0.052105 -0.284210 -0.080658 -0.648003 -0.034098 0.760874
-0.049084 -0.284210 -0.078947 -0.446542 0.239970 0.861983
-0.163559 -0.263157 -0.078947 -0.269350 -0.089748 -0.958851
-0.052105 -0.263157 -0.082215 -0.760311 0.280665 0.585794
-0.047246 -0.263157 -0.078947 -0.450495 0.118609 0.884865
-0.156316 -0.242104 -0.083676 -0.519047 -0.191787 -0.832951
-0.160755 -0.242104 -0.078947 -0.523934 -0.090761 -0.846910
-0.061579 -0.242104 -0.084671 -0.690146 0.196206 0.696564
-0.054946 -0.242104 -0.078947 -0.500069 0.545971 0.672195
-0.052105 -0.248415 -0.078947 -0.432023 0.610510 0.663803
-0.165790 -0.221052 -0.080506 -0.552667 -0.258473 -0.792307
-0.167552 -0.221052 -0.078947 -0.548799 -0.180940 -0.816137
-0.165790 -0.226507 -0.078947 -0.467277 -0.476711 -0.744579
-0.061579 -0.221052 -0.084713 -0.665726 0.221111 0.712684
-0.055227 -0.221052 -0.078947 -0.394143 0.022134 0.918783
-0.165790 -0.199999 -0.079160 -0.627004 -0.184043 -0.756964
-0.166028 -0.199999 -0.078947 -0.511613 -0.363211 -0.778672
-0.061579 -0.199999 -0.080019 -0.660974 -0.221751 0.716896
-0.060004 -0.199999 -0.078947 -0.573363 -0.119765 0.810500
-0.174015 -0.178946 -0.078947 -0.472330 -0.381147 -0.794752
-0.055943 -0.178946 -0.078947 -0.152853 -0.119520 0.980995
-0.175263 -0.157894 -0.079964 -0.776618 -0.460982 -0.429371
-0.182623 -0.157894 -0.078947 -0.786097 -0.580350 -0.212711
-0.175263 -0.168188 -0.078947 -0.656541 -0.312806 -0.686372
-0.056807 -0.157894 -0.078947 -0.082549 0.028372 0.996183
-0.194211 -0.136841 -0.079162 -0.807622 -0.359879 -0.467155
-0.194591 -0.136841 -0.078947 -0.630605 -0.351085 -0.692153
-0.194211 -0.138380 -0.078947 -0.629025 -0.380656 -0.677812
-0.184737 -0.156427 -0.078947 -0.707218 -0.551446 -0.442436
-0.184737 -0.136841 -0.081685 -0.787116 -0.488006 -0.377226
-0.061579 -0.136841 -0.082070 -0.780852 -0.191881 0.594518
-0.055627 -0.136841 -0.078947 -0.461055 -0.267250 0.846171
-0.194211 -0.115788 -0.082432 -0.751439 -0.419648 -0.509151
-0.200815 -0.115788 -0.078947 -0.555797 -0.563531 -0.611165
-0.052105 -0.121138 -0.078947 -0.419003 -0.400306 0.814979
-0.052105 -0.115788 -0.079718 -0.547155 -0.383072 0.744229
-0.051203 -0.115788 -0.078947 -0.271142 -0.367868 0.889469
-0.213158 -0.094736 -0.081805 -0.828218 -0.515266 -0.220354
-0.219854 -0.094736 -0.078947 -0.533234 -0.301849 -0.790284
-0.213158 -0.105379 -0.078947 -0.443460 -0.780604 -0.440454
-0.203684 -0.111103 -0.078947 -0.508089 -0.807923 -0.298504
-0.203684 -0.094736 -0.082851 -0.840424 -0.461504 -0.284081
-0.052105 -0.094736 -0.083083 -0.747462 -0.103500 0.656193
-0.045937 -0.094736 -0.078947 -0.335515 -0.431395 0.837453
-0.213158 -0.073683 -0.084325 -0.752211 -0.507815 -0.419883
-0.216256 -0.073683 -0.078947 -0.674026 -0.517408 -0.527236
-0.052105 -0.073683 -0.083109 -0.757383 -0.477641 0.445230
-0.042632 -0.075777 -0.078947 -0.680363 -0.117460 0.723401
-0.042632 -0.073683 -0.079174 -0.705425 -0.277820 0.652068
-0.042332 -0.073683 -0.078947 -0.546960 -0.111778 0.829663
-0.217860 -0.052630 -0.078947 -0.190858 -0.145776 -0.970733
-0.042632 -0.052630 -0.083569 -0.487736 -0.658562 0.573070
-0.038094 -0.052630 -0.078947 -0.417325 -0.535527 0.734200
-0.221559 -0.031578 -0.078947 -0.413995 -0.294059 -0.861474
-0.033158 -0.046898 -0.078947 -0.322655 -0.892623 0.314829
-0.023684 -0.043378 -0.078947 -0.373641 -0.866178 0.331857
-0.023684 -0.031578 -0.083543 -0.628028 -0.606547 0.487525
-0.017175 -0.031578 -0.078947 -0.374457 -0.570794 0.730736
-0.222632 -0.010525 -0.083193 -0.603650 -0.601584 -0.523167
-0.228272 -0.010525 -0.078947 -0.427613 -0.648736 -0.629514
-0.222632 -0.026811 -0.078947 -0.450191 -0.461930 -0.764166
-0.014211 -0.017585 -0.078947 -0.509636 -0.297516 0.807314
-0.014211 -0.010525 -0.079884 -0.619993 -0.398942 0.675613
-0.012654 -0.010525 -0.078947 -0.401347 -0.459809 0.792147
-0.251053 0.010528 -0.079126 -0.773381 -0.626193 -0.098817
-0.253949 0.010528 -0.078947 -0.729258 -0.669139 -0.142955
-0.251053 0.010147 -0.078947 -0.265311 -0.960853 -0.079825
-0.241579 0.007397 -0.078947 -0.418531 -0.875047 -0.243156
-0.241579 0.010528 -0.080133 -0.859071 -0.287323 -0.423606
-0.232105 -0.003604 -0.078947 -0.363627 -0.805465 -0.467976
-0.232105 0.010528 -0.084524 -0.558064 -0.579297 -0.594121
-0.004737 0.001346 -0.078947 -0.343697 -0.828292 0.442499
-0.004737 0.010528 -0.084881 -0.525112 -0.682626 0.508211
0.003067 0.010528 -0.078947 -0.331340 -0.719641 0.610189
-0.251053 0.031580 -0.079153 -0.907932 -0.409270 -0.090321
-0.252578 0.031580 -0.078947 -0.675386 -0.703996 -0.219643
-0.243541 0.031580 -0.078947 -0.923678 -0.380851 0.042100
-0.241579 0.030783 -0.078947 -0.646172 -0.228815 -0.728084
-0.241532 0.031580 -0.078947 -0.545670 -0.290074 -0.786194
0.004737 0.016627 -0.078947 -0.564246 -0.508361 0.650535
0.004737 0.031580 -0.084666 -0.406042 -0.816200 0.411031
0.014210 0.026283 -0.078947 -0.514610 -0.744453 0.425402
0.014210 0.031580 -0.081269 -0.544922 -0.650950 0.528511
0.017007 0.031580 -0.078947 -0.405947 -0.680442 0.610087
-0.260526 0.052633 -0.084445 -0.606151 -0.436395 -0.664936
-0.268692 0.052633 -0.078947 -0.582352 -0.467661 -0.664951
-0.260526 0.034767 -0.078947 -0.291729 -0.860355 -0.417952
-0.241579 0.031834 -0.078947 -0.788047 -0.490741 -0.371692
-0.241579 0.052633 -0.081503 -0.840351 -0.489578 -0.232644
0.023387 0.052633 -0.078947 -0.448648 -0.490838 0.746855
-0.279474 0.073686 -0.080511 -0.592497 -0.380893 -0.709836
-0.280949 0.073686 -0.078947 -0.075019 -0.041945 -0.996300
-0.279474 0.066357 -0.078947 -0.339660 -0.629970 -0.698405
-0.270000 0.057213 -0.078947 -0.637498 -0.537080 -0.552396
-0.270000 0.073686 -0.085074 -0.506785 -0.481126 -0.715323
0.023684 0.053741 -0.078947 -0.566362 -0.490908 0.662000
0.023684 0.073686 -0.084041 -0.506322 -0.536718 0.674961
0.029985 0.073686 -0.078947 -0.596378 -0.421423 0.683181
-0.279474 0.086403 -0.078947 -0.633871 0.276849 -0.722193
-0.270000 0.090066 -0.078947 -0.197441 0.468252 -0.861253
-0.268442 0.094738 -0.078947 0.051912 -0.506688 -0.860565
0.033158 0.087036 -0.078947 -0.519281 -0.443445 0.730550
0.033158 0.094738 -0.081143 -0.527631 -0.048993 0.848060
0.035661 0.094738 -0.078947 -0.640546 -0.177381 0.747153
-0.279474 0.115791 -0.079986 -0.755348 -0.533625 -0.380387
-0.281634 0.115791 -0.078947 -0.563761 -0.481866 -0.670804
-0.279474 0.102750 -0.078947 -0.606159 -0.513333 -0.607504
-0.270000 0.097329 -0.078947 -0.174810 -0.906411 -0.384527
-0.270000 0.115791 -0.082396 -0.863320 -0.314226 -0.394894
-0.222632 0.115791 -0.083119 -0.833304 -0.550519 0.050329
-0.213158 0.115791 -0.085198 -0.624076 0.630193 -0.461938
0.033158 0.115791 -0.079359 -0.559860 0.070152 0.825612
0.033519 0.115791 -0.078947 -0.407528 0.289607 0.866053
-0.317368 0.136844 -0.083762 -0.255851 -0.764344 -0.591877
-0.320618 0.136844 -0.078947 -0.250265 -0.397342 -0.882885
-0.317368 0.131144 -0.078947 -0.221113 -0.831142 -0.510207
-0.307895 0.121960 -0.078947 -0.141045 -0.989089 -0.042539
-0.298421 0.132781 -0.078947 -0.170110 -0.984840 0.033945
-0.288947 0.123818 -0.078947 -0.307399 -0.886401 -0.346119
0.033158 0.136844 -0.080492 -0.574521 -0.001305 0.818489
0.034599 0.136844 -0.078947 -0.363023 -0.000789 0.931780
-0.324554 0.157896 -0.078947 -0.399610 -0.633531 -0.662533
0.033158 0.157896 -0.080204 -0.595811 0.221031 0.772110
0.034371 0.157896 -0.078947 -0.373868 0.154550 0.914515
-0.336316 0.178949 -0.082925 -0.252866 -0.484134 -0.837659
-0.336924 0.178949 -0.078947 -0.003413 -0.360449 -0.932773
-0.336316 0.174391 -0.078947 -0.089421 -0.497958 -0.862579
-0.326842 0.160905 -0.078947 -0.243944 -0.866564 -0.435383
0.023684 0.178949 -0.080489 -0.682225 -0.011670 0.731049
0.027232 0.178949 -0.078947 -0.776603 0.335960 0.532934
0.033158 0.166155 -0.078947 -0.506248 0.377344 0.775451
-0.345789 0.200001 -0.080092 -0.449635 -0.423031 -0.786685
-0.346633 0.200001 -0.078947 -0.213685 -0.246168 -0.945378
-0.345789 0.198293 -0.078947 -0.226557 -0.646855 -0.728183
0.023684 0.200001 -0.083047 -0.671823 0.336818 0.659703
0.029091 0.200001 -0.078947 -0.610663 0.165844 0.774329
-0.345789 0.221054 -0.080138 -0.445370 0.086037 -0.891203
-0.346825 0.221054 -0.078947 -0.329087 0.190102 -0.924967
0.014210 0.221054 -0.081384 -0.659911 0.189711 0.726999
0.022838 0.221054 -0.078947 -0.702031 0.655110 0.279257
0.023684 0.220097 -0.078947 -0.585229 0.607647 0.536910
-0.345789 0.228790 -0.078947 -0.371219 0.388606 -0.843316
-0.340966 0.242107 -0.078947 0.050992 0.666232 -0.743999
0.014210 0.242107 -0.081281 -0.533076 0.092053 0.841045
0.017636 0.242107 -0.078947 -0.700267 0.209617 0.682412
-0.336316 0.255849 -0.078947 -0.184434 0.727905 -0.660408
-0.331939 0.263160 -0.078947 -0.361162 -0.274390 -0.891220
0.014210 0.263160 -0.080231 -0.541237 0.046723 0.839571
0.016043 0.263160 -0.078947 -0.814465 0.026670 0.579599
-0.345789 0.284212 -0.082386 -0.495218 -0.047978 -0.867443
-0.347557 0.284212 -0.078947 -0.151218 0.000200 -0.988500
-0.345789 0.277019 -0.078947 -0.263034 -0.532521 -0.804509
-0.336316 0.267432 -0.078947 -0.181740 -0.853413 -0.488526
0.014210 0.284212 -0.079963 -0.617970 0.027870 0.785707
0.015665 0.284212 -0.078947 -0.627845 0.148656 0.764010
-0.364737 0.305265 -0.079549 -0.932950 -0.359947 -0.006533
-0.367800 0.305265 -0.078947 -0.750883 -0.367197 -0.548946
-0.364737 0.304000 -0.078947 -0.108378 -0.993058 -0.045711
-0.361064 0.305265 -0.078947 -0.266935 -0.911379 0.313263
-0.345789 0.305265 -0.078974 -0.864786 -0.360725 -0.349318
-0.346017 0.305265 -0.078947 -0.106695 -0.971417 -0.212051
-0.336316 0.305265 -0.083129 -0.857648 0.210878 -0.469009
-0.326842 0.305265 -0.085262 -0.838114 0.208540 -0.504059
0.014210 0.305265 -0.080456 -0.620026 -0.020647 0.784310
0.016517 0.305265 -0.078947 -0.730005 -0.112732 0.674080
-0.364737 0.308329 -0.078947 -0.612236 0.788933 0.052463
-0.345789 0.305781 -0.078947 -0.783538 0.251160 -0.568319
-0.344121 0.326318 -0.078947 -0.326226 -0.475441 -0.817026
0.014210 0.326318 -0.080367 -0.592614 -0.041614 0.804411
0.016005 0.326318 -0.078947 -0.751739 -0.022008 0.659093
-0.364208 0.347370 -0.078947 -0.367052 -0.142355 -0.919243
-0.355263 0.337042 -0.078947 -0.163746 -0.937567 -0.306847
-0.345789 0.328942 -0.078947 -0.262359 -0.838156 -0.478187
0.014210 0.347370 -0.081004 -0.614175 -0.362139 0.701173
0.017610 0.347370 -0.078947 -0.627995 -0.294089 0.720510
-0.355263 0.366005 -0.078947 -0.140819 0.802390 -0.579949
-0.345789 0.368423 -0.081237 -0.783203 0.392660 -0.482090
-0.352810 0.368423 -0.078947 -0.456464 0.293426 -0.839966
0.023684 0.364744 -0.078947 -0.587615 -0.469919 0.658699
0.023684 0.368423 -0.079795 -0.659394 -0.268875 0.702072
0.024976 0.368423 -0.078947 -0.644848 -0.314472 0.696620
-0.355263 0.389475 -0.081913 -0.920981 -0.076368 -0.382049
-0.359015 0.389475 -0.078947 -0.361051 -0.308853 -0.879916
-0.355263 0.371718 -0.078947 -0.167238 -0.628853 -0.759326
-0.345789 0.389475 -0.082388 -0.915683 -0.218242 -0.337483
0.023684 0.389475 -0.081594 -0.635330 0.026558 0.771784
0.027627 0.389475 -0.078947 -0.669096 -0.064430 0.740378
-0.364737 0.410528 -0.079311 -0.889019 0.222125 -0.400381
-0.366903 0.410528 -0.078947 -0.629112 0.435516 -0.643851
-0.364737 0.409248 -0.078947 -0.355404 -0.484552 -0.799311
-0.355263 0.410528 -0.081887 -0.948451 -0.097560 -0.301534
-0.345789 0.410528 -0.084919 -0.861952 -0.024482 -0.506399
0.023684 0.410528 -0.080250 -0.603289 -0.376225 0.703205
0.025640 0.410528 -0.078947 -0.568234 -0.451485 0.687947
-0.364737 0.411717 -0.078947 -0.457700 0.784178 -0.419016
-0.355263 0.431581 -0.081192 -0.625038 0.347725 -0.698867
-0.358245 0.431581 -0.078947 -0.375850 0.402096 -0.834898
-0.345789 0.431581 -0.084642 -0.908332 0.315126 -0.275006
-0.336316 0.431581 -0.084954 -0.998845 0.022150 -0.042630
-0.326842 0.431581 -0.085250 -0.972387 0.185818 -0.141193
0.033158 0.423418 -0.078947 -0.470292 -0.681626 0.560546
0.033158 0.431581 -0.081717 -0.700506 -0.236800 0.673214
0.037471 0.431581 -0.078947 -0.540628 -0.419670 0.729108
-0.355263 0.452633 -0.079056 -0.586929 0.588078 -0.556488
-0.355358 0.452633 -0.078947 -0.039522 0.183833 -0.982163
-0.354714 0.452633 -0.078947 0.042602 0.887852 0.458153
-0.345789 0.448749 -0.078947 0.134729 0.950483 -0.280055
-0.343080 0.452633 -0.078947 -0.207776 0.607378 -0.766760
-0.317368 0.452633 -0.082986 -0.455342 0.446670 -0.770162
-0.222632 0.452633 -0.080649 0.166217 0.861551 0.479689
-0.222632 0.446061 -0.078947 -0.196350 0.955126 0.221769
-0.224380 0.452633 -0.078947 0.270650 0.406863 0.872474
-0.213158 0.447488 -0.078947 0.118551 0.967381 0.223873
-0.203684 0.452633 -0.084325 0.105849 0.902921 0.416568
-0.203684 0.441203 -0.078947 0.019234 0.941304 0.337011
-0.194211 0.432942 -0.078947 -0.271672 0.961126 0.049310
-0.184737 0.445060 -0.078947 -0.331083 0.835265 -0.438994
-0.175263 0.452633 -0.083642 0.101753 0.822773 -0.559187
-0.175263 0.433456 -0.078947 -0.454092 0.729951 -0.510854
-0.173202 0.452633 -0.078947 -0.176387 0.780974 -0.599139
0.033158 0.452633 -0.081615 -0.626399 -0.074531 0.775931
0.036698 0.452633 -0.078947 -0.652132 -0.024826 0.757699
-0.355263 0.473686 -0.079514 -0.753047 -0.253661 -0.607105
-0.355877 0.473686 -0.078947 -0.299385 -0.193758 -0.934252
-0.352130 0.473686 -0.078947 -0.831470 -0.138302 0.538080
-0.336316 0.473686 -0.082458 -0.886760 0.338984 -0.314239
-0.343469 0.473686 -0.078947 -0.409478 0.325543 -0.852261
-0.326842 0.473686 -0.083541 -0.856314 0.383810 0.345566
-0.317989 0.473686 -0.078947 -0.587877 -0.186009 0.787275
-0.317368 0.468791 -0.078947 -0.893847 -0.011143 -0.448233
-0.317057 0.473686 -0.078947 -0.329576 -0.024093 -0.943821
-0.225987 0.473686 -0.078947 -0.437423 -0.295770 0.849224
-0.165790 0.462078 -0.078947 -0.087690 0.845601 -0.526563
-0.156316 0.473686 -0.079777 0.212736 0.722370 -0.657970
-0.156316 0.473089 -0.078947 0.346214 0.750382 -0.563083
-0.156122 0.473686 -0.078947 0.232686 0.650008 -0.723427
0.033158 0.473686 -0.082907 -0.565480 -0.260698 0.782477
0.037878 0.473686 -0.078947 -0.627380 -0.265921 0.731902
-0.355263 0.494739 -0.080990 -0.989180 0.064078 -0.131976
-0.358338 0.494739 -0.078947 -0.051263 -0.071121 -0.996150
-0.351508 0.494739 -0.078947 -0.234417 0.077546 0.969038
-0.336316 0.488404 -0.078947 -0.731262 0.438936 -0.522102
-0.326842 0.494739 -0.081511 -0.841230 0.402364 -0.361158
-0.333223 0.494739 -0.078947 -0.703804 0.241601 -0.668049
-0.317368 0.478782 -0.078947 -0.818032 -0.134862 -0.559139
-0.317368 0.494739 -0.081686 -0.840149 0.444856 -0.310247
-0.307895 0.494739 -0.085136 -0.936238 0.338503 -0.094205
-0.298421 0.494739 -0.085162 -0.833750 0.333579 -0.439985
-0.222632 0.480845 -0.078947 -0.182801 -0.843657 0.504804
-0.213158 0.483464 -0.078947 -0.144249 -0.740784 0.656073
-0.211206 0.494739 -0.078947 0.025308 -0.004896 0.999668
-0.146842 0.489755 -0.078947 0.090389 0.916636 -0.389370
-0.137369 0.494269 -0.078947 0.014815 0.961365 -0.274877
-0.136708 0.494739 -0.078947 -0.007745 0.848865 -0.528553
0.042631 0.491705 -0.078947 -0.693356 -0.530753 0.487399
0.042631 0.494739 -0.079523 -0.782343 -0.438339 0.442491
0.052105 0.494516 -0.078947 -0.738634 -0.527728 0.419431
0.052105 0.494739 -0.078984 -0.937460 -0.111669 0.329694
0.052174 0.494739 -0.078947 -0.615609 -0.217061 0.757569
-0.355263 0.515791 -0.079181 -0.467970 0.597513 -0.651140
-0.355423 0.515791 -0.078947 0.230808 0.537153 -0.811292
-0.352401 0.515791 -0.078947 -0.459748 0.877103 0.139002
-0.326842 0.509033 -0.078947 -0.639853 0.766124 0.060344
-0.317368 0.501485 -0.078947 -0.216532 0.873123 -0.436772
-0.307895 0.511882 -0.078947 -0.382616 0.880716 -0.279187
-0.298421 0.515791 -0.080270 -0.328373 0.850855 -0.410143
-0.301706 0.515791 -0.078947 -0.221388 0.922497 -0.316208
-0.213158 0.515791 -0.083335 0.615034 -0.587892 0.525468
-0.213158 0.507689 -0.078947 -0.063054 -0.160077 0.985089
-0.214475 0.515791 -0.078947 -0.141856 -0.306228 0.941330
-0.203684 0.515791 -0.083555 0.701116 -0.547439 0.456888
-0.136288 0.515791 -0.078947 0.475395 0.140262 -0.868519
0.042631 0.515791 -0.082856 -0.711588 -0.048762 0.700903
0.050626 0.515791 -0.078947 -0.769102 -0.314725 0.556265
0.052105 0.496304 -0.078947 -0.813192 0.065661 0.578279
-0.355263 0.516041 -0.078947 -0.045272 0.948322 -0.314062
-0.298421 0.519019 -0.078947 -0.360636 0.783321 -0.506310
-0.288947 0.529856 -0.078947 -0.209645 0.810648 -0.546716
-0.284809 0.536844 -0.078947 -0.258656 0.429189 -0.865387
-0.270000 0.536844 -0.085120 -0.567657 0.817193 -0.099805
-0.213158 0.522132 -0.078947 0.061657 -0.759519 0.647556
-0.203684 0.526928 -0.078947 0.066075 -0.788099 0.611992
-0.199725 0.536844 -0.078947 0.070698 -0.503768 0.860941
-0.127895 0.529177 -0.078947 0.463555 0.821635 -0.331712
-0.127895 0.536844 -0.082456 0.711126 0.441382 -0.547249
-0.118421 0.536844 -0.079184 0.759905 0.514660 -0.397077
-0.118421 0.535964 -0.078947 0.496161 0.801118 -0.334715
-0.117811 0.536844 -0.078947 0.676739 0.581508 -0.451523
0.042631 0.536844 -0.082235 -0.805595 -0.123838 0.579380
0.052105 0.521418 -0.078947 -0.751802 -0.236123 0.615662
0.052105 0.536844 -0.080213 -0.875003 0.165522 0.454942
0.054008 0.536844 -0.078947 -0.532881 0.117687 0.837966
-0.298421 0.557897 -0.080351 -0.754403 -0.076559 -0.651931
-0.300773 0.557897 -0.078947 0.013136 0.188684 -0.981950
-0.298421 0.552832 -0.078947 -0.002740 -0.894778 -0.446503
-0.288947 0.546629 -0.078947 -0.471659 -0.730329 -0.494123
-0.279474 0.557897 -0.084713 -0.410605 0.840906 0.352534
-0.272342 0.557897 -0.078947 -0.382191 0.769667 0.511412
-0.270000 0.553401 -0.078947 -0.711518 0.699790 0.063526
-0.260526 0.557897 -0.083062 -0.348631 0.902617 -0.252466
-0.266416 0.557897 -0.078947 -0.378852 0.878178 -0.292017
-0.251053 0.557897 -0.084408 -0.351797 0.928463 -0.119144
-0.194211 0.555092 -0.078947 -0.174435 -0.589461 0.788739
-0.192733 0.557897 -0.078947 -0.130304 -0.551081 0.824215
-0.112346 0.557897 -0.078947 0.336133 0.095987 -0.936910
0.042631 0.557897 -0.083923 -0.701820 0.388459 0.597116
0.050240 0.557897 -0.078947 -0.615788 0.121618 0.778470
0.052105 0.548445 -0.078947 -0.618212 0.142320 0.773019
-0.298421 0.561347 -0.078947 -0.066747 0.957781 -0.279643
-0.288947 0.565033 -0.078947 -0.007936 0.999856 -0.015001
-0.279474 0.562726 -0.078947 -0.249497 0.948473 0.195320
-0.260526 0.560936 -0.078947 -0.401340 0.904186 -0.146200
-0.251053 0.563132 -0.078947 -0.389668 0.910864 -0.135962
-0.241579 0.568306 -0.078947 -0.498650 0.822461 -0.273690
-0.232105 0.576754 -0.078947 -0.590282 0.785358 -0.186492
-0.222632 0.578162 -0.078947 -0.571159 0.805497 -0.157965
-0.213158 0.578949 -0.081308 -0.299129 0.934264 -0.194095
-0.221159 0.578949 -0.078947 -0.437462 0.888439 -0.138935
-0.194211 0.578949 -0.084441 -0.352604 0.928176 0.118993
-0.184737 0.569438 -0.078947 -0.376163 -0.879164 0.292527
-0.184737 0.578949 -0.084982 -0.473920 0.878919 0.053860
-0.175263 0.575905 -0.078947 -0.554270 -0.752586 0.355526
-0.175263 0.578949 -0.082978 -0.383879 0.855986 0.346303
-0.171854 0.578949 -0.078947 -0.771127 -0.158956 0.616519
-0.156316 0.578949 -0.079838 -0.901406 -0.378530 -0.210195
-0.158355 0.578949 -0.078947 -0.771076 0.070629 -0.632814
-0.156316 0.577398 -0.078947 -0.705863 -0.702220 -0.092974
-0.151454 0.578949 -0.078947 -0.855206 -0.467783 0.223164
-0.119722 0.578949 -0.078947 0.568639 -0.599908 -0.562815
-0.118421 0.577928 -0.078947 0.571863 -0.504288 -0.647044
-0.099474 0.578949 -0.079401 0.937485 -0.021359 -0.347369
-0.099474 0.577206 -0.078947 0.878024 0.407844 -0.250474
-0.100970 0.578949 -0.078947 0.681044 -0.275214 0.678555
-0.098768 0.578949 -0.078947 0.522327 0.331849 -0.785526
0.042631 0.578949 -0.080770 -0.710138 0.433022 0.555154
0.046373 0.578949 -0.078947 -0.613842 0.409994 0.674613
-0.213158 0.580854 -0.078947 -0.292120 0.944905 -0.147718
-0.203684 0.585158 -0.078947 -0.311499 0.950246 -0.000995
-0.194211 0.580850 -0.078947 -0.279816 0.959448 0.034091
-0.184737 0.584523 -0.078947 -0.279708 0.959081 -0.043898
-0.175263 0.583280 -0.078947 -0.530896 0.808084 0.255246
-0.156316 0.582981 -0.078947 -0.665409 0.703026 -0.250967
-0.137369 0.600002 -0.080751 -0.755802 0.568802 -0.324389
-0.140160 0.600002 -0.078947 -0.468669 0.703151 -0.534722
-0.137369 0.587909 -0.078947 -0.859640 -0.508637 -0.048048
-0.127895 0.595698 -0.078947 -0.753074 -0.650370 -0.099498
-0.127895 0.600002 -0.080575 -0.533060 0.839147 -0.108069
-0.099474 0.582918 -0.078947 0.764644 -0.485464 -0.423844
0.023684 0.600002 -0.080387 -0.787178 0.387392 0.479872
0.033158 0.600002 -0.079002 -0.785760 0.556821 0.269316
0.033286 0.600002 -0.078947 -0.609843 0.611623 0.503992
0.042631 0.585793 -0.078947 -0.540616 0.674254 0.503107
-0.137369 0.603544 -0.078947 -0.445596 0.864959 -0.230849
-0.127895 0.602880 -0.078947 -0.421127 0.906472 -0.031005
-0.118421 0.604038 -0.078947 -0.256503 0.801387 -0.540357
-0.108947 0.621055 -0.081507 -0.664968 0.367235 -0.650350
-0.112781 0.621055 -0.078947 -0.354178 0.037016 -0.934445
0.014210 0.621055 -0.083634 -0.787129 0.042858 0.615298
0.023684 0.621055 -0.079684 -0.888631 0.134337 0.438508
0.026256 0.621055 -0.078947 -0.722511 0.247610 0.645497
0.033158 0.600405 -0.078947 -0.764483 0.467353 0.444013
-0.108947 0.642107 -0.082968 -0.854697 0.100173 -0.509371
-0.117704 0.642107 -0.078947 -0.585940 0.036827 -0.809517
0.014210 0.642107 -0.084870 -0.973189 0.137669 0.184254
0.023684 0.642107 -0.080810 -0.630653 0.352082 0.691603
0.025248 0.642107 -0.078947 -0.620662 0.300081 0.724382
-0.108947 0.663160 -0.079965 -0.852068 0.242462 -0.463889
-0.110472 0.663160 -0.078947 -0.183535 0.285394 -0.940673
-0.099474 0.663160 -0.080162 -0.866574 -0.387922 -0.313953
0.014210 0.663160 -0.080022 -0.589148 -0.048782 0.806551
0.015452 0.663160 -0.078947 -0.539384 0.066474 0.839432
0.023684 0.645495 -0.078947 -0.461416 0.622013 0.632609
-0.108947 0.684213 -0.082125 -0.585474 -0.324128 -0.743076
-0.114049 0.684213 -0.078947 -0.804424 0.027368 -0.593425
0.023162 0.684213 -0.078947 -0.599927 -0.406712 0.688966
-0.108947 0.705265 -0.079166 -0.800634 0.110362 -0.588902
-0.109573 0.705265 -0.078947 -0.749070 -0.234351 -0.619656
-0.099474 0.705265 -0.084863 -0.768282 0.225502 -0.599076
0.014210 0.705265 -0.084514 -0.768283 0.273759 0.578616
0.023684 0.691636 -0.078947 -0.675618 -0.006274 0.737225
0.023684 0.705265 -0.080132 -0.513373 0.606551 0.607078
0.024496 0.705265 -0.078947 -0.555394 0.297508 0.776548
-0.108947 0.726318 -0.083694 -0.677033 -0.365117 -0.638996
-0.114930 0.726318 -0.078947 -0.586893 -0.253023 -0.769113
0.014210 0.722686 -0.078947 -0.473493 0.646748 0.597931
0.012933 0.726318 -0.078947 -0.490267 0.274894 0.827086
0.023684 0.707062 -0.078947 -0.486249 0.686088 0.541152
-0.117151 0.747371 -0.078947 -0.464520 -0.055189 -0.883841
0.013534 0.747371 -0.078947 -0.517295 0.442362 0.732613
-0.108947 0.768423 -0.082008 -0.763151 0.113121 -0.636242
-0.115362 0.768423 -0.078947 -0.653008 0.472321 -0.592025
0.004737 0.767315 -0.078947 -0.360030 0.678044 0.640808
0.003953 0.768423 -0.078947 -0.457252 0.579647 0.674485
-0.108947 0.789476 -0.081038 -0.475037 0.666880 -0.574118
-0.111188 0.789476 -0.078947 -0.406785 0.613193 -0.677141
-0.099474 0.789476 -0.084650 -0.764006 0.465505 -0.446766
-0.001742 0.789476 -0.078947 -0.581306 0.614869 0.532934
-0.108947 0.793189 -0.078947 -0.432468 0.800572 -0.414797
-0.099474 0.809860 -0.078947 -0.462782 0.716672 -0.521741
-0.090000 0.810529 -0.081899 -0.595480 0.661724 -0.455550
-0.098894 0.810529 -0.078947 -0.431432 0.861050 -0.269184
-0.023684 0.810529 -0.081282 -0.595441 0.772735 0.219842
-0.014211 0.810529 -0.081309 -0.478331 0.866791 0.140971
-0.011371 0.810529 -0.078947 -0.374551 0.702711 0.604904
-0.004737 0.794189 -0.078947 -0.449319 0.732524 0.511390
-0.090000 0.818847 -0.078947 -0.480042 0.827938 -0.289962
-0.080526 0.822189 -0.078947 -0.417515 0.898355 -0.136527
-0.071053 0.825862 -0.078947 -0.357890 0.925745 -0.122113
-0.061579 0.827613 -0.078947 -0.274345 0.953600 0.124026
-0.052105 0.821911 -0.078947 -0.290707 0.956097 0.036984
-0.042632 0.826264 -0.078947 -0.283282 0.952970 0.107701
-0.033158 0.817279 -0.078947 -0.196796 0.954067 0.225892
-0.023684 0.815782 -0.078947 -0.449030 0.890250 0.076331
-0.014211 0.813957 -0.078947 -0.347063 0.873698 0.340880
0.033158 -0.957895 -0.075419 -0.664938 -0.409895 -0.624375
0.030239 -0.957895 -0.072631 -0.492251 -0.297465 -0.818048
0.033158 -0.968746 -0.072631 -0.546940 -0.669090 -0.503165
0.042631 -0.969093 -0.072631 -0.519090 -0.848587 -0.102205
0.042631 -0.957895 -0.078006 -0.648102 -0.655736 -0.387265
0.359913 -0.957895 -0.072631 -0.084213 0.443587 0.892266
0.023684 -0.936842 -0.072740 -0.634658 -0.471736 -0.612107
0.023470 -0.936842 -0.072631 -0.388150 -0.752965 -0.531398
0.023684 -0.937018 -0.072631 -0.408955 -0.596820 -0.690335
0.033158 -0.936842 -0.078641 -0.608572 -0.702681 -0.368618
0.355263 -0.944637 -0.072631 -0.042719 0.613416 0.788603
0.351605 -0.936842 -0.072631 0.075772 0.004727 0.997114
0.014210 -0.915789 -0.076302 -0.410461 -0.534354 -0.738909
0.008423 -0.915789 -0.072631 -0.567550 -0.132356 -0.812631
0.014210 -0.924875 -0.072631 -0.201931 -0.841836 -0.500536
0.355263 -0.920437 -0.072631 -0.074352 -0.272525 0.959272
0.355263 -0.915789 -0.076611 -0.294613 0.069838 0.953061
0.355968 -0.915789 -0.072631 0.007148 -0.094416 0.995507
0.014210 -0.894737 -0.074883 -0.536774 -0.229942 -0.811788
0.011546 -0.894737 -0.072631 -0.129629 -0.348031 -0.928477
0.355263 -0.907653 -0.072631 0.168241 0.208279 0.963491
0.352207 -0.894737 -0.072631 -0.040917 0.261803 0.964254
-0.004737 -0.873684 -0.078423 -0.582542 -0.664576 -0.467956
-0.009497 -0.873684 -0.072631 -0.166589 -0.665757 -0.727335
-0.004737 -0.886330 -0.072631 -0.211440 -0.931634 -0.295552
0.004737 -0.888650 -0.072631 -0.122617 -0.970370 -0.208200
0.353262 -0.873684 -0.072631 -0.296015 -0.058734 0.953376
-0.023684 -0.852631 -0.077238 -0.197094 -0.691101 -0.695365
-0.025963 -0.852631 -0.072631 0.098325 -0.354660 -0.929811
-0.023684 -0.856503 -0.072631 0.116130 -0.833513 -0.540158
-0.014211 -0.867234 -0.072631 -0.041146 -0.890928 -0.452278
0.298421 -0.856856 -0.072631 -0.477322 0.452417 0.753315
0.297101 -0.852631 -0.072631 -0.211391 -0.000717 0.977401
0.307895 -0.859681 -0.072631 -0.082374 0.787614 -0.610637
0.308539 -0.852631 -0.072631 -0.187128 0.022625 -0.982075
0.345789 -0.852631 -0.074145 -0.861696 -0.102633 0.496938
0.355263 -0.853937 -0.072631 -0.659360 -0.118069 0.742499
0.355263 -0.852631 -0.072703 -0.666385 -0.113679 0.736890
0.355321 -0.852631 -0.072631 -0.202098 -0.364264 0.909103
-0.023684 -0.831579 -0.076273 -0.512607 -0.337475 -0.789521
-0.028014 -0.831579 -0.072631 -0.226986 -0.591127 -0.773981
0.298421 -0.842919 -0.072631 -0.381317 -0.195690 0.903495
0.307895 -0.834910 -0.072631 -0.457859 -0.758995 -0.462916
0.307895 -0.831579 -0.072727 -0.391214 -0.518205 -0.760536
0.326842 -0.831579 -0.076907 -0.744505 -0.351350 0.567684
0.345789 -0.831579 -0.077282 -0.693383 0.237818 0.680193
0.355263 -0.831579 -0.073122 -0.715662 -0.000422 0.698447
0.355787 -0.831579 -0.072631 -0.269878 -0.186207 0.944718
-0.052105 -0.810526 -0.074564 -0.662918 -0.504596 -0.553103
-0.054558 -0.810526 -0.072631 -0.318457 -0.172889 -0.932038
-0.052105 -0.814635 -0.072631 -0.112417 -0.876549 -0.467999
-0.042632 -0.820325 -0.072631 -0.100617 -0.971004 -0.216857
-0.042632 -0.810526 -0.078441 -0.747201 -0.485704 -0.453633
-0.033158 -0.824145 -0.072631 -0.079712 -0.915155 -0.395142
0.326842 -0.810526 -0.078429 -0.939718 -0.284555 0.189627
0.345789 -0.821807 -0.072631 -0.596621 0.608885 0.522783
0.343192 -0.810526 -0.072631 -0.280816 -0.123991 0.951719
0.355263 -0.829103 -0.072631 -0.483550 0.467120 0.740256
-0.052105 -0.797273 -0.072631 -0.315671 0.862099 -0.396404
-0.042632 -0.797247 -0.072631 -0.242716 0.873006 -0.423023
-0.037549 -0.789473 -0.072631 -0.206221 0.315806 -0.926142
0.345789 -0.804789 -0.072631 -0.217514 -0.872986 0.436558
0.355263 -0.805754 -0.072631 -0.345963 -0.938174 0.011746
0.364737 -0.802344 -0.072631 -0.115651 -0.896981 0.426673
0.374210 -0.794174 -0.072631 -0.078331 -0.995140 0.059676
0.383684 -0.794665 -0.072631 -0.006565 -0.999194 0.039602
0.393158 -0.790256 -0.072631 -0.012967 -0.961799 0.273449
0.393158 -0.789473 -0.074299 -0.145910 -0.452347 0.879825
0.393877 -0.789473 -0.072631 -0.144006 -0.164062 0.975882
-0.061579 -0.768421 -0.073946 -0.420218 -0.894208 -0.154303
-0.069134 -0.768421 -0.072631 -0.227355 -0.965187 -0.129323
-0.061579 -0.769716 -0.072631 -0.058785 -0.990927 -0.120860
-0.052105 -0.776725 -0.072631 -0.160036 -0.969360 -0.186361
-0.042632 -0.776090 -0.072631 -0.221513 -0.840296 -0.494808
-0.042632 -0.768421 -0.076979 -0.748272 -0.579356 -0.323165
0.393158 -0.786745 -0.072631 0.095054 0.486377 0.868563
0.389379 -0.768421 -0.072631 -0.044302 0.535550 0.843340
-0.071053 -0.747368 -0.073179 -0.482390 -0.776419 -0.405553
-0.075805 -0.747368 -0.072631 -0.625220 -0.771257 -0.119423
-0.071053 -0.760321 -0.072631 -0.431217 -0.516726 -0.739626
0.364737 -0.753427 -0.072631 0.013896 0.861630 0.507346
0.361609 -0.747368 -0.072631 -0.093612 0.234089 0.967698
0.374210 -0.747368 -0.074657 0.471562 0.880963 0.039161
0.374210 -0.751682 -0.072631 0.154364 0.987890 0.015679
0.383684 -0.747368 -0.077066 0.345846 0.543800 0.764638
0.383684 -0.756080 -0.072631 0.007101 0.842574 0.538533
-0.080526 -0.726315 -0.072932 -0.697546 -0.349929 -0.625283
-0.081039 -0.726315 -0.072631 -0.678671 -0.246502 -0.691840
-0.080526 -0.738200 -0.072631 -0.361924 -0.401963 -0.841093
0.364737 -0.733108 -0.072631 -0.121575 -0.196428 0.972952
0.367550 -0.726315 -0.072631 -0.078737 -0.009751 0.996848
-0.080526 -0.705263 -0.073338 -0.823000 0.217907 -0.524583
-0.081651 -0.705263 -0.072631 -0.428836 0.089069 -0.898981
-0.071053 -0.705263 -0.075777 -0.880526 0.075092 -0.468011
0.374210 -0.705263 -0.077919 0.242556 -0.175422 0.954146
0.370428 -0.705263 -0.072631 0.307291 -0.480191 0.821577
-0.080526 -0.700154 -0.072631 -0.671422 0.445323 -0.592351
-0.071053 -0.684210 -0.073238 -0.801246 0.361898 -0.476481
-0.072770 -0.684210 -0.072631 -0.536894 0.630587 -0.560451
-0.061579 -0.684210 -0.078593 -0.652138 0.430392 -0.624082
0.374210 -0.696923 -0.072631 0.352892 -0.684308 0.638114
0.383684 -0.684210 -0.074627 0.196175 -0.420096 0.886022
0.381039 -0.684210 -0.072631 0.580320 -0.479769 0.658066
-0.071053 -0.680913 -0.072631 -0.557905 0.520460 -0.646424
-0.061579 -0.663157 -0.074193 -0.725240 0.456745 -0.515180
-0.065591 -0.663157 -0.072631 -0.291604 0.703345 -0.648285
-0.014211 -0.670184 -0.072631 -0.508453 0.860265 -0.037679
-0.016361 -0.663157 -0.072631 -0.316015 0.468695 0.824900
-0.011576 -0.663157 -0.072631 -0.273360 0.524574 -0.806286
0.014210 -0.663157 -0.077701 -0.631230 0.771185 0.082597
0.383684 -0.674806 -0.072631 0.433520 -0.132808 0.891304
0.384820 -0.663157 -0.072631 0.240750 0.218939 0.945571
-0.061579 -0.657932 -0.072631 -0.446978 0.807410 -0.385097
-0.052105 -0.648659 -0.072631 -0.283358 0.943915 -0.169508
-0.042632 -0.649738 -0.072631 -0.240545 0.949682 -0.200603
-0.033158 -0.642105 -0.073424 -0.352067 0.913147 -0.205455
-0.033792 -0.642105 -0.072631 -0.419158 0.671652 -0.610893
-0.031285 -0.642105 -0.072631 -0.596094 0.773411 0.215654
-0.023684 -0.644340 -0.072631 -0.262164 0.837587 0.479288
-0.004737 -0.651333 -0.072631 -0.189254 0.855169 -0.482565
0.004737 -0.643454 -0.072631 -0.267323 0.962935 -0.035986
0.014210 -0.650934 -0.072631 -0.292289 0.953074 -0.078852
0.020907 -0.642105 -0.072631 -0.258200 0.752043 -0.606436
0.374210 -0.642105 -0.077253 0.894505 -0.343367 -0.286285
0.374210 -0.655740 -0.072631 0.745038 0.615060 0.258108
0.366521 -0.642105 -0.072631 0.662215 0.289205 0.691253
0.383684 -0.642105 -0.074726 0.702234 0.240514 0.670090
0.383684 -0.657316 -0.072631 0.724613 0.542474 0.425039
-0.033158 -0.621052 -0.072638 -0.518768 0.779488 -0.351110
-0.033165 -0.621052 -0.072631 -0.314973 0.573624 -0.756140
-0.033146 -0.621052 -0.072631 -0.599198 0.644007 0.475623
0.023684 -0.634243 -0.072631 -0.170468 0.754152 -0.634188
0.033158 -0.625445 -0.072631 0.017168 0.982126 -0.187441
0.042631 -0.624842 -0.072631 0.002999 0.688802 -0.724943
0.043731 -0.621052 -0.072631 0.091727 0.090184 -0.991692
0.374210 -0.630381 -0.072631 0.577115 -0.700355 0.420049
0.378610 -0.621052 -0.072631 0.479082 -0.302284 0.824078
-0.033158 -0.621040 -0.072631 -0.170772 0.973811 -0.150096
0.023684 -0.599999 -0.078337 0.301024 0.010872 -0.953554
0.028160 -0.599999 -0.072631 0.519056 -0.343042 -0.782881
0.033158 -0.611446 -0.072631 0.249618 -0.898383 -0.361386
0.042631 -0.606129 -0.072631 0.309230 -0.198104 -0.930124
0.137368 -0.599999 -0.077954 -0.686833 0.604005 0.404276
0.146842 -0.599999 -0.077530 -0.666399 0.745537 -0.009302
0.156316 -0.599999 -0.078833 -0.730392 0.681431 0.046686
0.165789 -0.599999 -0.076733 -0.756586 0.639344 -0.137175
0.383684 -0.606325 -0.072631 0.440883 -0.012608 0.897476
0.384638 -0.599999 -0.072631 0.325887 0.165087 0.930884
0.027860 -0.578947 -0.072631 -0.004629 -0.153170 -0.988189
0.042631 -0.578947 -0.078225 -0.982176 0.145488 0.119009
0.118421 -0.578947 -0.076090 -0.468365 0.883102 0.027673
0.127895 -0.578947 -0.075922 -0.652814 0.738629 0.168108
0.137368 -0.578947 -0.073635 -0.747074 0.631908 0.206329
0.142222 -0.578947 -0.072631 -0.530051 0.784753 0.321261
0.146842 -0.582044 -0.072631 -0.401505 0.910622 -0.097782
0.156316 -0.578947 -0.075703 -0.750525 0.598613 -0.279955
0.149203 -0.578947 -0.072631 -0.166096 0.663556 -0.729456
0.165789 -0.578947 -0.073786 -0.815423 0.562949 0.134813
0.175263 -0.578947 -0.075295 -0.795389 0.481716 -0.367841
0.383684 -0.578947 -0.077709 0.503182 -0.162711 0.848725
0.383684 -0.592489 -0.072631 0.753044 0.259224 0.604754
0.374994 -0.578947 -0.072631 0.573468 0.698093 0.428720
-0.052105 -0.557894 -0.073586 -0.577755 -0.331524 0.745849
-0.052883 -0.557894 -0.072631 -0.261661 -0.322471 -0.909695
-0.052105 -0.560127 -0.072631 -0.464132 -0.864094 0.194737
-0.051708 -0.557894 -0.072631 -0.166131 -0.035187 0.985476
0.025283 -0.557894 -0.072631 -0.034252 -0.319925 -0.946823
0.042631 -0.557894 -0.078219 -0.992001 0.126203 0.002569
0.108947 -0.578360 -0.072631 -0.046279 0.274363 0.960512
0.106679 -0.557894 -0.072631 -0.246865 0.399491 0.882873
0.118421 -0.571511 -0.072631 -0.003978 0.999934 0.010730
0.127895 -0.573126 -0.072631 -0.220639 0.974513 0.040539
0.137368 -0.574224 -0.072631 -0.201181 0.965989 0.162452
0.156316 -0.569756 -0.072631 -0.216364 0.976278 -0.008303
0.165789 -0.574982 -0.072631 -0.336179 0.941782 -0.005556
0.175263 -0.571769 -0.072631 -0.295795 0.831666 -0.469932
0.184737 -0.561567 -0.072631 -0.208009 0.974032 -0.089408
0.194210 -0.563076 -0.072631 -0.310032 0.943615 -0.116066
0.203684 -0.557894 -0.073600 -0.409168 0.891926 -0.192482
0.201805 -0.557894 -0.072631 -0.283414 0.859769 -0.424822
0.212139 -0.557894 -0.072631 -0.401355 0.907286 0.125483
0.213158 -0.558003 -0.072631 -0.403197 0.901367 -0.158016
0.222631 -0.557894 -0.075838 -0.487068 0.848117 -0.208478
0.213360 -0.557894 -0.072631 -0.449021 0.720654 -0.528240
0.364737 -0.564922 -0.072631 0.241836 0.789338 0.564323
0.360879 -0.557894 -0.072631 0.387511 0.001835 0.921863
0.374210 -0.577982 -0.072631 0.426433 0.728468 0.536180
-0.052105 -0.549781 -0.072631 -0.379844 0.194793 0.904308
0.023684 -0.536842 -0.078509 -0.850270 -0.062453 -0.522629
0.019662 -0.536842 -0.072631 -0.245645 -0.569786 -0.784221
0.023684 -0.551519 -0.072631 -0.116229 -0.501264 -0.857453
0.108947 -0.536842 -0.074736 0.321172 -0.707298 0.629744
0.107516 -0.536842 -0.072631 0.101725 -0.287422 0.952387
0.118421 -0.536842 -0.075631 0.566111 -0.738727 0.365787
0.203684 -0.552930 -0.072631 -0.627687 0.678659 -0.381355
0.222631 -0.540210 -0.072631 -0.624816 0.675818 -0.390992
0.226019 -0.536842 -0.072631 -0.483398 0.752143 -0.447892
0.364737 -0.552509 -0.072631 0.269399 -0.869836 0.413292
0.374210 -0.544444 -0.072631 0.387602 -0.900518 0.197060
0.383684 -0.544095 -0.072631 0.353832 -0.931897 0.079813
0.393158 -0.541395 -0.072631 0.315481 -0.938553 0.139966
0.402631 -0.537602 -0.072631 0.369559 -0.904067 0.214682
0.412105 -0.536842 -0.075356 0.353500 -0.834046 0.423561
0.404490 -0.536842 -0.072631 0.698142 -0.581234 0.418049
-0.099474 -0.515789 -0.073401 -0.815914 -0.239931 -0.526040
-0.100120 -0.515789 -0.072631 -0.451833 -0.124081 -0.883431
-0.099474 -0.521429 -0.072631 -0.640003 -0.290472 -0.711352
-0.090000 -0.521795 -0.072631 -0.892951 -0.447607 0.047814
-0.090000 -0.515789 -0.073340 -0.997745 -0.043879 0.050786
-0.080526 -0.515843 -0.072631 -0.867299 -0.388729 0.310936
-0.080526 -0.515789 -0.072642 -0.833127 -0.186025 0.520859
-0.080510 -0.515789 -0.072631 -0.675283 -0.265566 0.688089
0.000216 -0.515789 -0.072631 -0.223769 -0.402014 -0.887870
0.004737 -0.523366 -0.072631 -0.063554 -0.903678 -0.423471
0.014210 -0.528712 -0.072631 -0.187810 -0.911078 -0.366965
0.108947 -0.533779 -0.072631 0.081166 -0.940916 0.328769
0.118421 -0.531839 -0.072631 0.229307 -0.936354 0.265820
0.127895 -0.517681 -0.072631 0.006882 -0.827135 0.561962
0.127895 -0.515789 -0.077723 -0.109829 -0.899428 0.423045
0.129820 -0.515789 -0.072631 0.622842 -0.660069 0.419971
0.232105 -0.524397 -0.072631 -0.317875 0.748156 -0.582424
0.241579 -0.515789 -0.073632 -0.871100 -0.211159 -0.443391
0.238873 -0.515789 -0.072631 -0.424962 -0.627432 -0.652484
0.251052 -0.515789 -0.075459 -0.753324 0.526560 -0.394001
0.412105 -0.515789 -0.075671 0.616560 -0.524840 0.586853
0.407727 -0.515789 -0.072631 0.420841 -0.469509 0.776179
-0.099474 -0.494736 -0.074676 -0.779061 -0.519043 -0.351649
-0.101066 -0.494736 -0.072631 -0.427290 -0.591034 -0.684180
-0.093479 -0.494736 -0.072631 -0.791608 -0.536985 0.291553
-0.090000 -0.504335 -0.072631 -0.992962 0.100623 0.062464
-0.080526 -0.494736 -0.073014 -0.727923 -0.685231 0.024220
-0.082287 -0.494736 -0.072631 -0.775207 -0.615712 -0.141258
-0.079951 -0.494736 -0.072631 -0.601632 -0.674772 0.427460
-0.061579 -0.494736 -0.073638 -0.532706 -0.838230 -0.116599
-0.063337 -0.494736 -0.072631 -0.566904 -0.693145 -0.445162
-0.061579 -0.501563 -0.072631 -0.837917 -0.422900 -0.345038
-0.056215 -0.494736 -0.072631 -0.833874 -0.502871 0.227541
0.004737 -0.494736 -0.076665 -0.343537 -0.814941 -0.466748
-0.002766 -0.494736 -0.072631 -0.909004 -0.198781 -0.366331
0.137368 -0.502958 -0.072631 0.488125 -0.751969 0.443031
0.146842 -0.498812 -0.072631 0.800586 -0.488538 0.346977
0.156316 -0.494736 -0.075106 0.829106 -0.535445 -0.160877
0.149534 -0.494736 -0.072631 0.747208 -0.153965 0.646509
0.160909 -0.494736 -0.072631 0.496720 -0.338415 -0.799215
0.165789 -0.502518 -0.072631 0.473870 -0.866456 -0.157167
0.175263 -0.499093 -0.072631 0.304177 -0.897236 0.320069
0.184737 -0.494736 -0.076838 0.545997 -0.805765 0.229413
0.179515 -0.494736 -0.072631 0.432043 -0.431476 0.791939
0.193131 -0.494736 -0.072631 0.591992 -0.463954 -0.659009
0.194210 -0.495471 -0.072631 0.340809 -0.883021 -0.322681
0.203684 -0.501455 -0.072631 0.198409 -0.950099 -0.240721
0.213158 -0.505557 -0.072631 0.081849 -0.995053 -0.056311
0.222631 -0.502122 -0.072631 0.158811 -0.971892 -0.173793
0.232105 -0.513541 -0.072631 -0.047246 -0.967740 -0.247480
0.251052 -0.494736 -0.073680 0.427551 0.745762 0.510920
0.251052 -0.498371 -0.072631 -0.428913 0.009390 0.903297
0.250235 -0.494736 -0.072631 -0.217238 0.424264 0.879095
0.253098 -0.494736 -0.072631 -0.204830 0.894945 -0.396382
0.326842 -0.494736 -0.073733 0.563970 0.819450 -0.102174
0.326842 -0.503474 -0.072631 0.270348 0.914146 0.302076
0.322145 -0.494736 -0.072631 0.293426 0.891149 0.346057
0.330357 -0.494736 -0.072631 0.344139 0.733864 -0.585673
0.412105 -0.507110 -0.072631 0.337013 -0.841946 0.421366
-0.118421 -0.473684 -0.074655 -0.665882 -0.736915 -0.116437
-0.120503 -0.473684 -0.072631 -0.388677 -0.529146 -0.754277
-0.118421 -0.477578 -0.072631 -0.675767 -0.687818 -0.265039
-0.113895 -0.473684 -0.072631 -0.453068 -0.794108 0.405119
-0.107688 -0.473684 -0.072631 -0.258362 -0.497245 -0.828249
-0.090000 -0.492306 -0.072631 -0.705242 -0.696892 0.130286
-0.090000 -0.473684 -0.077716 -0.696316 -0.715704 -0.053960
-0.071053 -0.488401 -0.072631 -0.383462 -0.922906 0.034664
-0.052105 -0.489466 -0.072631 -0.423382 -0.567080 0.706519
-0.044841 -0.473684 -0.072631 -0.466927 -0.498972 0.730073
-0.004737 -0.473684 -0.075801 -0.722161 0.048243 -0.690041
-0.010207 -0.473684 -0.072631 -0.382093 -0.321067 -0.866557
-0.004737 -0.492535 -0.072631 -0.602385 -0.435363 -0.669023
0.156316 -0.473684 -0.074934 0.990259 0.136037 0.029685
0.151065 -0.473684 -0.072631 0.601882 -0.632614 0.487378
0.164114 -0.473684 -0.072631 0.660482 -0.637055 -0.397399
0.175263 -0.473684 -0.073532 0.920602 -0.344850 0.183222
0.175263 -0.478748 -0.072631 0.829032 0.409816 0.380468
0.167816 -0.473684 -0.072631 0.832378 -0.404425 0.378929
0.184737 -0.473684 -0.075011 0.803954 -0.382504 0.455356
0.194210 -0.493342 -0.072631 0.274421 0.864786 -0.420522
0.203684 -0.473684 -0.075784 0.434987 0.098594 -0.895023
0.203313 -0.473684 -0.072631 0.354893 -0.025371 -0.934563
0.241579 -0.473684 -0.073459 0.030305 -0.459010 0.887914
0.241713 -0.473684 -0.072631 -0.044868 -0.040375 0.998177
0.260526 -0.473684 -0.077642 0.716790 0.246824 -0.652143
0.260526 -0.487300 -0.072631 -0.183536 0.928514 -0.322763
0.270000 -0.473684 -0.076860 0.484067 0.864338 -0.136377
0.270000 -0.484132 -0.072631 -0.216442 0.941191 -0.259448
0.279473 -0.473684 -0.072818 0.357894 0.911804 0.201307
0.279473 -0.473979 -0.072631 -0.362606 0.928422 0.080927
0.288947 -0.473684 -0.078237 0.353454 0.890731 -0.285777
0.288947 -0.482433 -0.072631 -0.026183 0.941763 -0.335258
0.292773 -0.473684 -0.072631 -0.299832 0.537539 -0.788132
0.307895 -0.488925 -0.072631 -0.016994 0.924239 0.381435
0.302373 -0.473684 -0.072631 -0.144805 0.454718 0.878785
0.317368 -0.491843 -0.072631 0.004058 0.984917 0.172978
0.336316 -0.473684 -0.074736 0.427195 0.351163 -0.833180
0.336316 -0.482951 -0.072631 -0.103158 0.603136 -0.790939
0.337757 -0.473684 -0.072631 -0.094885 0.204431 -0.974272
-0.128306 -0.452631 -0.072631 -0.203955 -0.100012 -0.973858
-0.127895 -0.453595 -0.072631 -0.061133 -0.679995 -0.730664
-0.108947 -0.468642 -0.072631 -0.525496 -0.818377 -0.232620
-0.046948 -0.452631 -0.072631 0.536779 0.062379 0.841414
-0.004737 -0.466626 -0.072631 -0.509505 0.698000 -0.503191
0.004737 -0.452631 -0.075827 -0.525751 -0.045262 -0.849433
0.000715 -0.452631 -0.072631 -0.444626 -0.132593 -0.885848
0.156316 -0.452631 -0.076014 -0.699327 0.469663 0.538849
0.156316 -0.464172 -0.072631 0.119473 -0.991904 0.043052
0.175263 -0.470500 -0.072631 0.516416 -0.849303 0.109541
0.184737 -0.468759 -0.072631 0.390873 -0.887784 0.243018
0.194210 -0.464234 -0.072631 0.265174 -0.950173 -0.163874
0.249504 -0.452631 -0.072631 -0.032031 -0.204935 0.978251
0.260526 -0.452631 -0.072763 -0.277509 -0.871558 0.404198
0.297142 -0.452631 -0.072631 -0.080761 0.054961 -0.995217
0.298421 -0.452631 -0.076613 -0.291814 -0.824430 0.484932
0.299422 -0.452631 -0.072631 -0.153630 0.027376 0.987749
0.339216 -0.452631 -0.072631 0.010659 -0.271261 -0.962447
-0.127895 -0.451621 -0.072631 -0.176403 0.645865 -0.742792
-0.118421 -0.431578 -0.075880 0.770578 -0.241967 -0.589628
-0.118421 -0.435182 -0.072631 0.299229 0.823791 -0.481488
-0.113117 -0.431578 -0.072631 0.399550 0.581404 -0.708752
-0.048101 -0.431578 -0.072631 0.388893 0.692734 0.607356
-0.004737 -0.433179 -0.072631 -0.373662 -0.119399 -0.919848
-0.004737 -0.431578 -0.073018 -0.673728 0.081448 -0.734477
-0.005171 -0.431578 -0.072631 -0.263492 0.584548 -0.767382
0.004737 -0.431578 -0.077872 -0.773409 -0.071172 -0.629900
0.156316 -0.448774 -0.072631 -0.217903 0.975539 0.029017
0.150585 -0.431578 -0.072631 0.072616 0.215455 0.973810
0.163926 -0.431578 -0.072631 0.176327 0.278823 -0.944016
0.175263 -0.431578 -0.077325 0.665357 0.722302 0.188626
0.175263 -0.440953 -0.072631 0.129456 0.979724 0.152914
0.168360 -0.431578 -0.072631 0.309509 0.216958 0.925815
0.184737 -0.431578 -0.077342 0.637406 0.631685 -0.441233
0.184737 -0.437801 -0.072631 0.269580 0.911647 -0.310203
0.188937 -0.431578 -0.072631 0.108689 -0.174748 -0.978596
0.247204 -0.431578 -0.072631 -0.271336 0.242591 0.931411
0.257577 -0.431578 -0.072631 -0.314831 0.243135 -0.917479
0.260526 -0.431578 -0.077170 -0.524949 0.743512 -0.414268
0.260526 -0.452262 -0.072631 -0.280722 -0.957345 0.068457
0.265019 -0.431578 -0.072631 0.131076 -0.054744 0.989860
0.288947 -0.431578 -0.077910 0.009095 0.574543 -0.818424
0.289729 -0.431578 -0.072631 -0.198781 -0.333344 -0.921612
