ply
format ascii 1.0
element vertex 854
property float x
property float y
property float z
property float nx
property float ny
property float nz
end_header
-0.066132 0.136844 0.003158 0.534750 -0.248895 0.807523
-0.014211 0.136844 -0.001194 0.682795 -0.415424 -0.601011
-0.004737 0.131207 0.003158 0.816162 -0.573289 -0.072246
-0.007512 0.136844 0.003158 0.523337 -0.259498 -0.811652
-0.002289 0.136844 0.003158 0.401937 -0.304168 0.863671
0.052105 0.136844 0.002844 0.998655 -0.042923 -0.029073
0.061579 0.136844 -0.000823 0.993892 0.036856 0.104024
0.071052 0.124212 0.003158 0.526775 0.779250 -0.339527
0.071052 0.136844 -0.000218 0.960409 -0.096337 -0.261406
0.080526 0.136844 0.003123 0.799336 0.519347 -0.302228
0.080526 0.136298 0.003158 0.559264 0.724042 -0.403717
0.081221 0.136844 0.003158 0.910121 0.406121 -0.082129
0.146842 0.131719 0.003158 0.318230 0.270002 0.908751
0.146426 0.136844 0.003158 -0.155463 0.125364 0.979855
0.156316 0.136844 0.001802 0.170274 0.884478 0.434402
-0.274373 0.157896 0.003158 -0.023283 0.167552 0.985588
-0.260526 0.142934 0.003158 0.069035 0.979646 -0.188489
-0.251053 0.141334 0.003158 -0.203353 0.930250 0.305422
-0.232105 0.137263 0.003158 0.066490 0.960332 -0.270816
-0.222632 0.141901 0.003158 -0.030260 0.986170 -0.162951
-0.213158 0.144704 0.003158 -0.036376 0.912583 -0.407270
-0.203684 0.157896 0.003118 0.357663 0.595529 -0.719321
-0.203684 0.157845 0.003158 -0.089136 0.840742 -0.534049
-0.203652 0.157896 0.003158 -0.109159 0.662154 -0.741375
-0.080526 0.157896 0.001675 0.783797 -0.589636 0.194915
-0.080526 0.147828 0.003158 0.925904 0.093091 0.366109
-0.082240 0.157896 0.003158 0.394961 -0.316745 0.862368
-0.078121 0.157896 0.003158 0.729891 -0.130760 -0.670940
-0.061579 0.156835 0.003158 0.802188 -0.520354 0.292790
-0.052105 0.157896 0.002653 0.743396 -0.668220 0.029067
-0.057157 0.157896 0.003158 0.905629 -0.417241 0.075798
-0.042632 0.157896 0.003103 0.708333 -0.681471 -0.184017
-0.042466 0.157896 0.003158 0.603656 -0.714757 -0.353159
-0.033158 0.150502 0.003158 0.571620 -0.804999 0.158831
-0.023684 0.157896 0.001563 0.520641 -0.633825 0.572013
-0.026512 0.157896 0.003158 0.642154 -0.585503 0.494798
-0.009419 0.157896 0.003158 0.355654 -0.073099 -0.931755
0.000997 0.157896 0.003158 0.401678 0.010771 0.915718
0.014210 0.157896 -0.002446 0.963411 0.055031 0.262319
0.042631 0.157896 0.002019 0.792150 -0.292898 -0.535452
0.052105 0.157896 0.002834 0.953259 0.157138 0.258077
0.061579 0.157896 -0.001398 0.985831 -0.070067 0.152409
0.071052 0.157896 0.000114 0.979440 0.196660 -0.044964
0.080526 0.157896 -0.000257 0.924808 -0.137686 -0.354646
0.084655 0.157896 0.003158 0.394003 0.044544 -0.918029
0.144159 0.157896 0.003158 0.004610 0.080863 0.996715
-0.412105 0.178949 -0.002462 -0.950971 -0.274576 -0.142343
-0.407460 0.178949 0.003158 -0.096765 -0.626960 0.773018
-0.402632 0.167169 0.003158 -0.139021 0.907143 -0.397197
-0.400104 0.178949 0.003158 -0.010061 -0.792761 -0.609449
-0.270000 0.178949 0.001521 0.629117 0.105882 0.770066
-0.272977 0.178949 0.003158 0.523072 0.080080 0.848518
-0.203684 0.178949 0.000131 0.906421 0.255592 -0.336265
-0.194211 0.173481 0.003158 0.085520 0.839155 -0.537126
-0.194211 0.178949 -0.000838 0.757801 0.160871 -0.632344
-0.191187 0.178949 0.003158 -0.400945 0.459290 -0.792651
-0.080526 0.164009 0.003158 0.799102 -0.552344 0.237387
-0.061579 0.178949 0.001934 0.646287 -0.744948 0.165426
-0.061579 0.161234 0.003158 0.948302 0.095749 0.302582
-0.063047 0.178949 0.003158 0.580258 -0.361014 0.730048
-0.052105 0.159096 0.003158 0.759750 -0.650199 -0.004623
-0.059502 0.178949 0.003158 0.676735 -0.421927 -0.603330
-0.042632 0.158297 0.003158 0.878929 -0.396274 -0.265426
-0.023684 0.163672 0.003158 0.661414 -0.445677 0.603244
-0.014211 0.178949 -0.001094 0.993824 -0.102426 0.042701
-0.019993 0.178949 0.003158 0.476986 0.045715 0.877721
-0.009480 0.178949 0.003158 0.421904 -0.011381 -0.906569
-0.000388 0.178949 0.003158 0.246950 -0.006515 0.969006
0.019397 0.178949 0.003158 0.319027 -0.210028 -0.924181
0.023684 0.168757 0.003158 0.418584 -0.842523 -0.339031
0.033158 0.172308 0.003158 0.439518 -0.897862 0.025824
0.042631 0.163703 0.003158 0.804900 -0.549407 -0.224251
0.046666 0.178949 0.003158 0.611272 0.369795 0.699713
0.052105 0.178949 -0.001319 0.793204 0.256650 0.552231
0.061579 0.178949 -0.000981 0.958911 0.269457 0.088785
0.071052 0.178949 -0.002959 0.905781 0.363582 -0.217646
0.080526 0.178949 0.000675 0.878789 0.458068 -0.133807
0.090000 0.170769 0.003158 0.723766 0.383439 -0.573705
0.090000 0.178949 0.000520 0.939340 -0.066717 -0.336436
0.093721 0.178949 0.003158 0.475902 0.305712 -0.824656
0.146842 0.169113 0.003158 0.202782 -0.654423 0.728430
0.156316 0.178949 0.002272 0.758772 -0.510268 0.404834
0.153837 0.178949 0.003158 0.791790 -0.239107 0.562047
-0.402632 0.181466 0.003158 -0.010979 -0.999240 -0.037394
-0.288947 0.200001 0.001800 0.892800 0.417114 0.170072
-0.288947 0.197822 0.003158 0.387898 0.868615 0.308291
-0.290658 0.200001 0.003158 0.381200 0.358761 0.852043
-0.282731 0.200001 0.003158 0.163300 0.920196 -0.355770
-0.278048 0.200001 0.003158 0.404323 0.427685 0.808461
-0.203684 0.200001 0.000035 0.917480 0.095307 -0.386197
-0.194211 0.200001 -0.000371 0.837262 0.004859 -0.546781
-0.190185 0.200001 0.003158 0.467249 0.096280 -0.878868
-0.061579 0.182970 0.003158 0.784648 -0.618932 0.035350
-0.023684 0.200001 0.002848 0.767935 0.258555 0.586024
-0.023684 0.198661 0.003158 0.830353 0.161383 0.533357
-0.024428 0.200001 0.003158 0.797432 0.435364 0.417805
-0.014211 0.200001 -0.001344 0.877026 -0.312858 -0.364617
-0.009734 0.200001 0.003158 0.406489 -0.054752 -0.912014
0.000416 0.200001 0.003158 0.334288 -0.005213 0.942456
0.014210 0.200001 0.000956 0.837930 0.475252 -0.268346
0.023684 0.195215 0.003158 0.872586 -0.053153 -0.485560
0.023684 0.200001 0.000608 0.844410 -0.404790 -0.350879
0.027047 0.200001 0.003158 0.768029 0.189415 -0.611763
0.042631 0.200001 -0.000981 0.569649 0.390383 0.723257
0.042631 0.184491 0.003158 0.652393 0.693544 0.305582
0.035918 0.200001 0.003158 0.451572 0.386850 0.804009
0.061579 0.200001 0.001956 0.873445 0.104325 0.475616
0.090000 0.200001 0.000809 0.965311 -0.081363 -0.248102
0.099474 0.191428 0.003158 0.604931 0.742400 -0.287923
0.099474 0.200001 -0.000782 0.990652 0.098664 0.094207
0.108947 0.200001 0.000239 0.993048 -0.033961 -0.112706
0.108947 0.191213 0.003158 0.405100 0.914244 -0.007203
0.118421 0.200001 0.000686 0.926466 0.375779 -0.021222
0.118421 0.192281 0.003158 0.373317 0.927253 -0.028924
0.127895 0.200001 0.000498 0.999122 0.038616 0.016250
0.127895 0.192237 0.003158 0.352363 0.935206 0.035068
0.137368 0.200001 0.000528 0.982241 0.186607 0.019496
0.137368 0.190191 0.003158 0.246232 0.961297 0.123606
0.146842 0.200001 0.000206 0.998194 -0.023273 -0.055381
0.146842 0.184436 0.003158 0.473342 0.823799 0.311933
0.156316 0.200001 0.001462 0.914581 0.202023 0.350326
0.184737 0.200001 -0.002791 0.893652 0.272326 0.356685
0.323090 0.200001 0.003158 0.058213 -0.754533 -0.653675
0.326842 0.196424 0.003158 0.061869 -0.913665 -0.401732
0.336316 0.187732 0.003158 -0.005105 -0.963227 -0.268640
0.345789 0.190240 0.003158 0.070466 -0.986173 0.149992
0.355263 0.192729 0.003158 -0.022334 -0.996544 -0.080003
0.364737 0.188926 0.003158 -0.095387 -0.988523 0.117145
0.372738 0.200001 0.003158 -0.010231 -0.685495 0.728005
0.393158 0.200001 0.000936 -0.331213 -0.942298 -0.048709
0.391031 0.200001 0.003158 -0.220475 -0.658517 -0.719546
0.393158 0.198036 0.003158 -0.471299 -0.790101 -0.391941
0.396812 0.200001 0.003158 -0.097263 -0.892020 0.441407
-0.289896 0.221054 0.003158 0.337589 0.217592 0.915799
-0.279474 0.204458 0.003158 0.717116 0.632079 0.293633
-0.203684 0.221054 -0.000611 0.831909 -0.402412 -0.382090
-0.194211 0.221054 -0.000439 0.910881 0.286543 -0.296968
-0.187421 0.221054 0.003158 0.417389 0.248248 -0.874162
-0.023684 0.221054 -0.001820 0.868464 -0.483004 0.111703
-0.029138 0.221054 0.003158 0.558212 -0.025011 0.829321
-0.014211 0.221054 0.001206 0.791727 0.282890 -0.541425
-0.011217 0.221054 0.003158 0.575539 0.122124 -0.808604
0.000124 0.221054 0.003158 0.228263 0.224452 0.947374
0.014210 0.221054 -0.000764 0.871354 0.101906 -0.479955
0.021858 0.221054 0.003158 0.595365 0.345813 -0.725227
0.023684 0.211777 0.003158 0.895889 0.281957 -0.343341
0.026656 0.221054 0.003158 0.600179 0.474532 0.643898
0.033158 0.210805 0.003158 0.774110 0.252311 0.580598
0.059351 0.221054 0.003158 0.386504 0.114411 -0.915164
0.061579 0.209133 0.003158 0.841649 -0.262086 0.472162
0.063610 0.221054 0.003158 0.385148 -0.089757 0.918480
0.078480 0.221054 0.003158 0.416754 0.130936 -0.899540
0.080526 0.216166 0.003158 0.553227 -0.668753 -0.496698
0.090000 0.209692 0.003158 0.673881 -0.738795 -0.008146
0.098208 0.221054 0.003158 0.698284 0.052328 0.713906
0.099474 0.221054 0.001758 0.869914 -0.231335 0.435585
0.103299 0.221054 0.003158 0.929454 -0.036822 -0.367095
0.108947 0.215863 0.003158 0.854201 -0.519776 0.013205
0.114147 0.221054 0.003158 0.890543 0.265221 0.369582
0.118421 0.221054 0.001986 0.983813 -0.083808 0.158395
0.127535 0.221054 0.003158 0.970726 0.051842 -0.234529
0.127895 0.220663 0.003158 0.943708 -0.329882 0.024360
0.128331 0.221054 0.003158 0.886464 0.371561 0.275906
0.137368 0.221054 0.001558 0.986720 0.118387 0.111208
0.146842 0.221054 0.002791 0.971044 0.180142 -0.156917
0.156316 0.221054 0.003150 0.911772 0.388142 0.134230
0.165789 0.221054 0.000212 0.854158 0.065454 0.515878
0.307895 0.221054 -0.000679 -0.513684 -0.713671 0.476238
0.300033 0.221054 0.003158 -0.224525 -0.851702 -0.473489
0.307895 0.214124 0.003158 -0.260152 -0.965107 0.029827
0.311651 0.221054 0.003158 0.025908 -0.660867 0.750056
0.326842 0.221054 -0.000346 -0.372607 -0.327959 -0.868105
0.323297 0.221054 0.003158 -0.245228 -0.526315 -0.814160
0.374210 0.207202 0.003158 -0.000767 -0.540411 0.841401
0.382751 0.221054 0.003158 -0.465848 -0.722020 0.511540
0.384044 0.221054 0.003158 -0.286577 -0.531432 -0.797153
0.402631 0.207223 0.003158 -0.170442 -0.896971 0.407913
0.402631 0.221054 -0.001462 -0.903642 0.106663 0.414793
0.412105 0.213300 0.003158 -0.263328 -0.954106 -0.142615
0.412105 0.221054 -0.000679 -0.857057 -0.346558 -0.381249
-0.288947 0.221997 0.003158 -0.213537 -0.872378 0.439726
-0.279474 0.232113 0.003158 -0.255364 -0.764994 0.591248
-0.275789 0.242107 0.003158 -0.306852 -0.658292 0.687382
-0.222443 0.242107 0.003158 -0.251120 -0.637802 -0.728112
-0.213158 0.227435 0.003158 -0.276964 -0.945040 -0.173752
-0.203684 0.241336 0.003158 -0.203590 -0.736029 0.645610
-0.203322 0.242107 0.003158 -0.047751 -0.751428 0.658085
-0.184737 0.229924 0.003158 0.662062 0.641030 -0.388271
-0.175263 0.242107 0.000152 0.946115 0.323180 0.020536
-0.175263 0.228179 0.003158 0.459023 0.887656 -0.036936
-0.165790 0.242107 -0.000249 0.869168 -0.078580 -0.488233
-0.165790 0.230277 0.003158 0.429530 0.792404 -0.433127
-0.160834 0.242107 0.003158 0.494280 0.268164 -0.826907
-0.146842 0.242107 0.003001 0.958984 -0.207435 -0.193186
-0.146842 0.241171 0.003158 0.876261 0.331918 -0.349281
-0.147389 0.242107 0.003158 0.854312 0.036494 0.518478
-0.146524 0.242107 0.003158 0.730280 -0.114547 -0.673476
-0.118421 0.242107 0.000363 0.960044 0.011319 0.279621
-0.118421 0.234365 0.003158 0.483181 0.710269 0.511913
-0.121851 0.242107 0.003158 0.356573 -0.114340 0.927244
-0.108947 0.242107 0.000649 0.934153 -0.127308 -0.333392
-0.108947 0.233794 0.003158 0.308140 0.931331 -0.194096
-0.105162 0.242107 0.003158 0.068864 0.015172 -0.997511
-0.023684 0.242107 0.001309 0.823250 -0.297226 0.483648
-0.027184 0.242107 0.003158 0.609860 -0.421835 0.670914
-0.014211 0.242107 0.000005 0.962662 -0.257103 0.084736
-0.004737 0.232546 0.003158 0.744863 0.654927 -0.127474
-0.004737 0.242107 0.000376 0.932799 -0.355258 -0.060638
0.004737 0.242107 0.000855 0.990241 -0.012338 0.138818
0.014210 0.242107 -0.001626 0.876572 -0.468276 0.111079
0.023684 0.225231 0.003158 0.624688 0.727312 -0.284222
0.023684 0.242107 -0.000105 0.880844 -0.294498 -0.370655
0.030690 0.242107 0.003158 0.641997 0.358178 -0.677900
0.033158 0.233809 0.003158 0.923479 -0.237423 0.301359
0.042631 0.242107 0.001154 0.938249 -0.168367 0.302228
0.036681 0.242107 0.003158 0.783678 0.240628 0.572666
0.052105 0.242107 0.000410 0.998121 0.000612 -0.061265
0.058610 0.242107 0.003158 0.628037 0.210058 -0.749296
0.063987 0.242107 0.003158 0.243764 0.444922 0.861756
0.080526 0.225595 0.003158 0.512690 0.723283 -0.462612
0.090000 0.242107 -0.000846 0.923770 0.252038 -0.288316
0.090000 0.229886 0.003158 0.399283 0.915125 -0.055860
0.099474 0.242107 -0.000912 0.996955 0.024294 -0.074094
0.108947 0.224680 0.003158 0.642791 0.763957 -0.056467
0.108947 0.242107 -0.000113 0.996722 0.037896 -0.071473
0.118421 0.242107 0.000152 0.997316 0.012515 0.072147
0.127895 0.221355 0.003158 0.741062 0.667644 -0.071267
0.127895 0.242107 -0.002527 0.825001 0.279688 0.491068
0.146842 0.242107 -0.001954 0.855717 0.367605 -0.364163
0.156316 0.242107 -0.001853 0.982206 0.180423 0.052147
0.165789 0.242107 -0.003124 0.936919 0.156994 0.312307
0.184737 0.242107 -0.003151 0.995303 -0.003575 0.096745
0.288947 0.242107 0.001639 -0.608201 -0.200121 -0.768143
0.287839 0.242107 0.003158 -0.146119 -0.220138 -0.964463
0.288947 0.239969 0.003158 -0.383817 -0.695862 -0.607009
0.298421 0.223688 0.003158 -0.222755 -0.634214 -0.740373
0.317368 0.229263 0.003158 -0.196684 -0.979745 -0.037622
0.374210 0.242107 -0.000755 -0.553218 -0.627894 0.547448
0.383684 0.222316 0.003158 -0.476121 -0.869065 -0.134295
0.402631 0.242107 0.002733 -0.981750 -0.085947 0.169646
0.412105 0.242107 0.001400 -0.944090 0.304908 -0.125401
-0.270000 0.250497 0.003158 -0.177718 -0.858201 0.481568
-0.260526 0.257860 0.003158 -0.263565 -0.959889 0.095643
-0.251053 0.257661 0.003158 -0.193683 -0.960258 0.200978
-0.245094 0.263160 0.003158 -0.346845 -0.861208 0.371509
-0.222632 0.263160 -0.001758 -0.550061 -0.559699 -0.619815
-0.228573 0.263160 0.003158 -0.323876 -0.744285 -0.584076
-0.222632 0.242971 0.003158 -0.330245 -0.471705 -0.817578
-0.194211 0.249059 0.003158 -0.045377 -0.994002 0.099501
-0.184737 0.246090 0.003158 0.219663 -0.926141 0.306612
-0.175263 0.263160 0.000906 0.718404 -0.622994 0.309475
-0.178664 0.263160 0.003158 0.185624 -0.369554 0.910480
-0.165790 0.263160 0.002654 0.839683 0.046052 -0.541121
-0.164978 0.263160 0.003158 0.327206 -0.063713 -0.942803
-0.146842 0.242866 0.003158 0.644543 -0.759984 -0.083595
-0.118421 0.249883 0.003158 0.475893 -0.793615 0.379078
-0.108947 0.254546 0.003158 0.417395 -0.843860 -0.337167
-0.023684 0.248052 0.003158 0.553104 -0.766047 0.327488
-0.014211 0.254152 0.003158 0.502903 -0.864296 -0.009027
-0.004737 0.251421 0.003158 0.556282 -0.830971 0.006138
0.004737 0.254735 0.003158 0.607713 -0.782274 0.136867
0.014210 0.257518 0.003158 0.636382 -0.765050 0.098574
0.023684 0.260941 0.003158 0.842935 -0.252582 0.475040
0.024633 0.263160 0.003158 0.677123 -0.053838 0.733897
0.033158 0.263160 -0.001792 0.981072 -0.188534 -0.044181
0.033158 0.247365 0.003158 0.783280 0.613841 -0.098343
0.042631 0.263160 0.000012 0.989254 -0.002227 0.146191
0.061579 0.263160 -0.002039 0.999856 0.014806 0.008313
0.061579 0.247317 0.003158 0.478156 0.866687 -0.142202
0.090000 0.263160 -0.001070 0.847116 -0.125469 -0.516383
0.099474 0.263160 0.000889 0.922940 0.334394 -0.190691
0.108947 0.263160 0.000958 0.993980 0.086291 -0.067514
0.118421 0.263160 0.002265 0.977660 0.209402 -0.018242
0.127895 0.263160 -0.002142 0.860900 0.331828 0.385671
0.137368 0.263160 -0.001902 0.998813 -0.006587 -0.048270
0.146842 0.263160 -0.001334 0.997671 0.051225 -0.045049
0.156316 0.263160 -0.001360 0.992192 -0.090865 0.085429
0.165789 0.263160 -0.002531 0.946366 0.017162 0.322641
0.184737 0.263160 -0.002457 0.992587 -0.055520 0.108111
0.288947 0.263160 0.003079 -0.666256 -0.531761 -0.522813
0.288779 0.263160 0.003158 -0.438532 -0.670291 -0.598665
0.298421 0.263160 -0.001040 -0.736079 -0.436259 -0.517558
0.317368 0.263160 -0.001197 -0.848986 -0.525574 -0.054719
0.345789 0.263160 -0.002924 -0.737810 -0.663619 -0.123472
0.383684 0.263160 0.000632 -0.831806 -0.498662 0.243794
0.402631 0.263160 0.001276 -0.970813 0.176180 0.162734
0.412105 0.263160 -0.000223 -0.823332 -0.427157 -0.373714
-0.241579 0.265605 0.003158 -0.204698 -0.959801 0.192042
-0.232105 0.266875 0.003158 -0.204784 -0.966025 -0.157669
-0.175263 0.277971 0.003158 0.719180 0.061776 0.692072
-0.172433 0.284212 0.003158 0.404004 -0.358455 0.841600
-0.165790 0.284212 0.000517 0.902970 -0.352268 -0.246072
-0.163631 0.284212 0.003158 0.212366 -0.074703 -0.974331
-0.146842 0.284212 0.002873 0.696434 0.380830 0.608233
-0.146842 0.283366 0.003158 0.718007 0.273697 0.639965
-0.147159 0.284212 0.003158 0.419645 0.072881 0.904758
-0.145716 0.284212 0.003158 0.695839 0.651565 -0.302112
-0.080526 0.284212 0.001814 0.965507 0.239279 0.102671
-0.080526 0.278987 0.003158 0.930251 0.357369 0.083196
-0.082626 0.284212 0.003158 0.435703 0.289390 0.852300
-0.077865 0.284212 0.003158 0.645027 0.390099 -0.657087
0.014210 0.284212 0.001111 0.902368 0.178996 -0.392037
0.014210 0.272697 0.003158 0.952613 0.302354 -0.033333
0.007831 0.284212 0.003158 0.693068 0.521361 0.497835
0.017163 0.284212 0.003158 0.511640 -0.009837 -0.859144
0.033158 0.272675 0.003158 0.424622 -0.897704 0.117576
0.042631 0.273467 0.003158 0.547052 -0.754016 0.363583
0.047005 0.284212 0.003158 0.297433 -0.153703 0.942289
0.080526 0.284212 -0.000278 0.894464 0.406234 -0.186835
0.090000 0.284212 -0.000467 0.667318 0.578409 0.469180
0.137368 0.284212 -0.002288 0.423680 0.822942 -0.378500
0.146842 0.284212 -0.002526 0.865014 0.491626 -0.100272
0.156316 0.284212 -0.000588 0.808428 0.588554 -0.006996
0.165789 0.284212 -0.002728 0.755056 0.455831 0.471283
0.184737 0.284212 -0.001411 0.905781 0.404103 0.127523
0.260526 0.284212 -0.000386 -0.179220 -0.802265 -0.569431
0.259617 0.284212 0.003158 -0.106959 -0.383331 -0.917397
0.260526 0.281161 0.003158 -0.190613 -0.570611 -0.798793
0.270000 0.281874 0.003158 -0.294637 -0.949910 -0.104214
0.270000 0.284212 0.000628 -0.417701 -0.908466 -0.014680
0.279473 0.276043 0.003158 -0.242675 -0.887503 -0.391724
0.279473 0.284212 0.000260 -0.636150 -0.724120 -0.266388
0.288947 0.284212 -0.002731 -0.375095 -0.727999 -0.573866
0.402631 0.274723 0.003158 -0.749496 0.231909 0.620060
0.401187 0.284212 0.003158 -0.359876 -0.240755 0.901402
0.405271 0.284212 0.003158 -0.368091 -0.294996 -0.881752
-0.165790 0.300951 0.003158 0.490559 0.833041 0.255723
-0.161453 0.305265 0.003158 0.516339 0.764993 0.384943
-0.156316 0.305265 0.002186 0.677141 0.615007 0.404038
-0.156316 0.303526 0.003158 0.449436 0.359174 0.817925
-0.137369 0.305265 -0.003046 0.512168 0.816063 -0.267815
-0.137369 0.294071 0.003158 0.644364 0.734824 -0.211727
-0.127895 0.305265 -0.001007 0.311283 0.814866 0.488975
-0.127895 0.296630 0.003158 0.243171 0.957604 0.154477
-0.118421 0.290972 0.003158 0.505298 0.862840 0.013471
-0.108947 0.305265 -0.000158 0.725184 0.686444 0.053877
-0.108947 0.294879 0.003158 0.063811 0.993943 -0.089476
-0.099474 0.295615 0.003158 0.152214 0.987963 -0.027551
-0.090000 0.296158 0.003158 0.386798 0.899480 0.203281
-0.080526 0.305265 0.000559 0.824646 0.553288 -0.117606
-0.071053 0.294209 0.003158 0.476647 0.849079 -0.227755
-0.071053 0.305265 -0.001059 0.925146 -0.005742 0.379568
-0.061579 0.297852 0.003158 0.397484 0.880477 -0.258391
-0.054245 0.305265 0.003158 0.410780 0.753333 -0.513565
-0.042632 0.305265 -0.000710 0.218645 0.809663 0.544647
-0.042632 0.301724 0.003158 0.209143 0.919800 0.332004
-0.047553 0.305265 0.003158 0.638116 0.712898 0.290834
-0.033158 0.294736 0.003158 0.240712 0.969981 -0.034562
-0.023684 0.305265 0.002739 0.876267 0.164365 -0.452925
-0.023684 0.304355 0.003158 0.183636 0.916507 -0.355377
-0.014211 0.305265 0.001643 0.941236 0.132736 0.310573
-0.014211 0.291693 0.003158 0.759138 0.594609 0.264859
-0.004737 0.305265 -0.001584 0.593766 0.550033 0.587287
-0.004737 0.294393 0.003158 0.538056 0.839578 0.074862
0.004737 0.288302 0.003158 0.578882 0.748389 0.323742
0.023684 0.298048 0.003158 0.221543 0.953664 -0.203579
0.033158 0.294358 0.003158 0.441687 0.888200 -0.126540
0.038332 0.305265 0.003158 0.286777 0.256944 -0.922897
0.047238 0.305265 0.003158 0.301137 -0.003989 0.953572
0.232105 0.305265 -0.000130 -0.795487 -0.291309 -0.531357
0.229753 0.305265 0.003158 -0.048831 -0.106892 -0.993071
0.232105 0.300540 0.003158 0.003389 -0.869605 -0.493736
0.241579 0.295309 0.003158 -0.199998 -0.979514 -0.023532
0.241579 0.305265 -0.000363 -0.830133 -0.551317 0.083242
0.251052 0.301177 0.003158 -0.238781 -0.945454 -0.221585
0.251052 0.305265 0.000816 -0.563637 -0.633489 -0.530099
0.402631 0.289791 0.003158 -0.588076 -0.761359 0.272944
0.412105 0.305265 -0.001888 -0.660407 -0.735576 -0.150969
-0.165790 0.326318 -0.001497 0.281488 0.388965 0.877195
-0.165790 0.317116 0.003158 0.186321 0.115041 0.975730
-0.166383 0.326318 0.003158 -0.040664 -0.275842 0.960343
-0.108947 0.326318 -0.003066 0.845742 0.192263 -0.497750
-0.099474 0.326318 -0.001138 0.871394 0.347318 -0.346472
-0.092259 0.326318 0.003158 0.588269 0.111409 -0.800954
-0.090000 0.320902 0.003158 0.967099 -0.250921 0.041922
-0.080526 0.326318 -0.000094 0.898707 -0.369184 -0.236704
-0.087416 0.326318 0.003158 0.613011 0.284536 0.737060
-0.075827 0.326318 0.003158 0.538731 -0.033661 -0.841805
-0.071053 0.316420 0.003158 0.764096 -0.598592 0.240510
-0.067160 0.326318 0.003158 0.327171 0.114537 0.937998
-0.052105 0.310558 0.003158 0.710269 0.654147 -0.260017
-0.052105 0.326318 0.000702 0.700253 0.664755 0.260280
-0.027493 0.326318 0.003158 0.280163 0.072621 -0.957202
-0.023684 0.306528 0.003158 0.746377 -0.646730 -0.157037
-0.014211 0.312741 0.003158 0.744798 -0.470221 0.473464
-0.010846 0.326318 0.003158 0.418973 0.286024 0.861772
-0.004737 0.326318 -0.002205 0.432108 0.292601 0.853034
0.016284 0.326318 0.003158 0.281474 -0.208141 -0.936723
0.023684 0.314274 0.003158 0.386659 -0.780553 0.491154
0.027489 0.326318 0.003158 0.165939 0.234717 0.957795
0.038256 0.326318 0.003158 0.307517 0.190757 -0.932226
0.047185 0.326318 0.003158 0.216226 0.301713 0.928556
0.232105 0.323692 0.003158 -0.320902 0.334668 -0.886013
0.241579 0.326318 -0.000718 -0.918812 -0.269803 -0.288082
0.233145 0.326318 0.003158 -0.389533 -0.169105 -0.905355
0.251052 0.326318 -0.001468 -0.717472 -0.248770 -0.650651
-0.165790 0.331256 0.003158 -0.010996 -0.411425 0.911377
-0.156474 0.347370 0.003158 -0.468275 0.617690 0.631805
-0.090000 0.332225 0.003158 0.558301 0.817116 -0.143603
-0.071053 0.335786 0.003158 0.441493 0.859187 -0.258613
-0.023684 0.334893 0.003158 0.348550 0.850390 -0.394144
-0.014211 0.333883 0.003158 0.371822 0.873464 0.314339
0.023684 0.334764 0.003158 0.211429 0.974603 0.073808
0.042631 0.336282 0.003158 0.399712 0.893782 -0.203431
0.232105 0.347370 -0.001104 -0.597465 -0.057668 -0.799819
0.230323 0.347370 0.003158 -0.105162 -0.076451 -0.991512
0.232105 0.330108 0.003158 0.009497 -0.287417 -0.957759
0.402631 0.347370 -0.001977 -0.639470 -0.553904 0.533168
0.412105 0.347370 0.002163 -0.860585 0.401430 -0.313444
-0.165790 0.353541 0.003158 -0.130320 0.732179 0.668528
-0.169226 0.368423 0.003158 0.133677 0.091612 0.986781
0.232105 0.363879 0.003158 -0.654374 0.484999 -0.580147
0.241579 0.368423 0.002688 -0.892405 -0.221194 -0.393302
0.237428 0.368423 0.003158 -0.986160 -0.092257 -0.137755
-0.168769 0.389475 0.003158 -0.179035 0.817725 0.547059
0.232105 0.389475 -0.001215 -0.576834 -0.144253 -0.804023
0.229501 0.389475 0.003158 -0.298949 0.226846 -0.926914
0.232105 0.371337 0.003158 -0.616325 -0.382546 -0.688333
-0.174377 0.410528 0.003158 0.029609 0.550453 0.834341
0.232105 0.396245 0.003158 -0.375134 0.797422 -0.472645
0.241579 0.410166 0.003158 -0.406300 0.786519 -0.465089
0.241950 0.410528 0.003158 -0.825816 0.259568 -0.500652
-0.414016 0.431581 0.003158 -0.546719 0.509928 0.664132
-0.412105 0.428136 0.003158 -0.458276 0.817367 0.349135
-0.402632 0.423908 0.003158 -0.324316 0.913769 -0.244634
-0.397287 0.431581 0.003158 -0.314053 0.146972 -0.937961
-0.175263 0.413757 0.003158 -0.171128 0.647549 0.742560
-0.183987 0.431581 0.003158 -0.247506 0.519558 0.817802
0.241579 0.431581 0.000551 -0.239805 -0.546027 -0.802713
0.239892 0.431581 0.003158 -0.670339 -0.577068 -0.466518
0.241579 0.412508 0.003158 -0.571196 -0.184458 -0.799819
-0.412105 0.443344 0.003158 -0.777524 -0.062640 0.625726
-0.402632 0.449782 0.003158 -0.658444 -0.694268 -0.290590
-0.402632 0.452633 0.000731 -0.561434 -0.567098 -0.602654
-0.184737 0.452633 0.001974 -0.380300 0.331480 0.863419
-0.184071 0.452633 0.003158 -0.131724 0.176826 0.975388
0.232105 0.452633 0.001413 -0.686329 -0.127190 -0.716083
0.230368 0.452633 0.003158 -0.244918 0.042648 -0.968605
0.232105 0.444790 0.003158 -0.354453 -0.521479 -0.776159
-0.194211 0.473686 -0.000772 -0.572055 0.090079 0.815254
-0.189760 0.473686 0.003158 -0.515040 0.145234 0.844772
-0.184737 0.457391 0.003158 -0.484692 0.330480 0.809850
0.232105 0.461344 0.003158 -0.496568 0.550055 -0.671461
0.241579 0.473686 0.000895 -0.328230 0.043638 -0.943589
0.239971 0.473686 0.003158 -0.781811 0.078427 -0.618564
-0.412105 0.483662 0.003158 -0.206865 0.977804 -0.033254
-0.402632 0.478868 0.003158 -0.166082 0.941963 -0.291759
-0.396818 0.494739 0.003158 -0.167007 0.473539 -0.864794
-0.194211 0.494739 -0.000436 -0.794670 -0.471949 0.381791
-0.184737 0.492807 0.003158 -0.539979 -0.000777 0.841678
-0.184737 0.494739 0.002808 -0.645477 -0.393556 0.654578
-0.184450 0.494739 0.003158 -0.284077 -0.384027 0.878535
0.232105 0.494739 -0.000129 -0.434480 -0.595324 -0.675882
0.230751 0.494739 0.003158 -0.341638 -0.470821 -0.813395
0.232105 0.488752 0.003158 -0.518612 -0.568507 -0.638624
-0.393158 0.504486 0.003158 -0.147350 0.800652 -0.580727
-0.393158 0.515791 -0.002345 0.763388 0.619315 -0.183543
-0.383684 0.515791 -0.001798 0.878313 0.378815 -0.291660
-0.383684 0.507235 0.003158 -0.184057 0.976634 -0.110947
-0.374211 0.515791 0.000858 0.536075 0.837655 -0.104685
-0.374211 0.508660 0.003158 -0.254967 0.932263 -0.256664
-0.364737 0.515791 0.002021 0.194566 0.900340 -0.389270
-0.367137 0.515791 0.003158 -0.246336 0.801187 -0.545360
-0.336316 0.515011 0.003158 -0.000328 0.993601 -0.112944
-0.337926 0.515791 0.003158 -0.139570 0.918368 0.370299
-0.335430 0.515791 0.003158 -0.009820 0.853664 -0.520732
-0.279474 0.515791 -0.002609 -0.567935 -0.117466 0.814648
-0.175263 0.512481 0.003158 -0.193734 -0.690886 0.696522
-0.175263 0.515791 -0.002512 -0.120614 -0.750044 0.650297
-0.173745 0.515791 0.003158 -0.123680 -0.542602 0.830834
0.227639 0.515791 0.003158 -0.279680 -0.243879 -0.928602
-0.383684 0.536844 -0.003082 0.376540 0.924247 -0.063124
-0.364737 0.520740 0.003158 -0.604732 0.652814 -0.456215
-0.355263 0.533304 0.003158 -0.734361 0.476564 -0.483323
-0.345789 0.536844 0.001329 -0.507509 0.825082 0.248343
-0.353260 0.536844 0.003158 -0.692237 0.657722 -0.297001
-0.342674 0.536844 0.003158 -0.513006 0.493008 0.702686
-0.326842 0.536844 0.002775 -0.890662 0.412047 0.192197
-0.327451 0.536844 0.003158 -0.693544 0.226989 -0.683720
-0.326432 0.536844 0.003158 -0.510360 0.434077 0.742368
-0.317368 0.523051 0.003158 -0.371166 0.912936 0.169656
-0.307895 0.523378 0.003158 -0.205751 0.705642 -0.678039
-0.298421 0.536844 -0.002586 -0.714703 0.554989 -0.425661
-0.305011 0.536844 0.003158 -0.400552 -0.057162 -0.914489
-0.288947 0.536844 -0.002483 -0.954528 -0.293262 -0.053603
-0.270000 0.536844 -0.001045 -0.920876 -0.337671 -0.194848
-0.165790 0.528392 0.003158 -0.122471 -0.865543 0.485630
-0.159320 0.536844 0.003158 -0.219124 -0.755865 0.616971
0.232105 0.536844 -0.002178 -0.578013 0.809500 -0.103010
0.223216 0.536844 0.003158 -0.625762 0.137233 -0.767847
0.241579 0.536844 0.001186 -0.770879 0.635560 0.042539
0.251052 0.536844 -0.002177 -0.551307 0.662507 -0.507095
0.279473 0.532821 0.003158 -0.477139 0.867745 0.139129
0.275346 0.536844 0.003158 -0.492644 0.708252 0.505650
0.288947 0.536844 0.002777 -0.180864 0.921830 -0.342807
0.288548 0.536844 0.003158 -0.540159 0.814180 -0.212932
0.317368 0.536844 -0.001877 -0.073216 0.826164 0.558652
0.318970 0.536844 0.003158 -0.436550 0.733034 0.521618
0.326842 0.525882 0.003158 -0.416609 0.851542 0.318298
0.336316 0.522281 0.003158 -0.465103 0.881594 0.080446
0.345789 0.521963 0.003158 -0.309425 0.946954 -0.086794
0.355263 0.526505 0.003158 -0.395788 0.911543 -0.111543
0.364737 0.526562 0.003158 -0.300198 0.901794 -0.310884
0.370404 0.536844 0.003158 -0.467153 0.584285 -0.663610
0.383684 0.532103 0.003158 -0.544774 0.808439 0.222817
0.380439 0.536844 0.003158 -0.519595 0.724509 0.452888
0.393158 0.530507 0.003158 -0.510121 0.860035 0.010740
0.402631 0.531371 0.003158 -0.267926 0.960806 -0.071188
0.412105 0.533468 0.003158 -0.318377 0.918647 -0.233933
0.416663 0.536844 0.003158 -0.334440 0.886163 -0.320726
-0.345789 0.540715 0.003158 -0.325760 0.936613 0.128985
-0.326842 0.557897 0.001533 -0.517661 0.824357 -0.229048
-0.328876 0.557897 0.003158 -0.262817 0.737236 -0.622423
-0.324722 0.557897 0.003158 -0.311317 0.650783 0.692505
-0.298421 0.557897 -0.002471 -0.754103 -0.010848 -0.656667
-0.305692 0.557897 0.003158 -0.338304 0.472504 -0.813812
-0.156316 0.545636 0.003158 -0.207126 -0.531316 0.821463
-0.153017 0.557897 0.003158 -0.315581 -0.307085 0.897835
0.203684 0.557897 -0.001307 -0.374947 -0.661635 -0.649348
0.201695 0.557897 0.003158 -0.317153 -0.643504 -0.696647
0.203684 0.554455 0.003158 -0.385922 -0.871046 -0.303880
0.210278 0.557897 0.003158 -0.375143 -0.895410 0.239808
0.232105 0.547773 0.003158 -0.841121 0.540846 0.000333
0.241579 0.546267 0.003158 -0.915867 0.356445 -0.184753
0.251052 0.557897 0.000368 -0.496295 0.862278 0.100840
0.245518 0.557897 0.003158 -0.769423 0.549316 -0.325946
0.260526 0.551254 0.003158 -0.771571 0.614713 0.163729
0.254423 0.557897 0.003158 -0.585397 0.674292 0.450155
0.270000 0.549279 0.003158 -0.574154 0.738120 0.354295
0.288947 0.537125 0.003158 -0.517065 0.791753 -0.325224
0.298421 0.548078 0.003158 -0.428454 0.860872 -0.274456
0.307895 0.549998 0.003158 -0.372881 0.920860 0.113917
0.317368 0.539955 0.003158 -0.325536 0.721188 0.611485
0.374210 0.543346 0.003158 -0.468138 0.883453 -0.018902
-0.326842 0.559783 0.003158 -0.221508 0.972453 0.072596
-0.298421 0.567979 0.003158 -0.156627 0.960079 -0.231766
-0.288947 0.569797 0.003158 -0.100213 0.994966 -0.000617
-0.279474 0.567624 0.003158 -0.266912 0.963714 -0.003668
-0.270000 0.570437 0.003158 -0.241964 0.869362 -0.430886
-0.266008 0.578949 0.003158 -0.325566 0.460132 -0.826006
-0.151792 0.578949 0.003158 -0.094295 -0.082735 0.992101
0.169802 0.578949 0.003158 -0.220516 -0.811237 -0.541541
0.175263 0.574178 0.003158 -0.060607 -0.996440 -0.058608
0.182039 0.578949 0.003158 -0.126402 -0.833891 0.537261
0.194210 0.578949 -0.000032 -0.703249 -0.412347 -0.579146
0.188812 0.578949 0.003158 -0.386956 -0.724875 -0.569931
0.194210 0.573163 0.003158 -0.328052 -0.809748 -0.486508
0.213158 0.559536 0.003158 -0.354173 -0.920559 0.164723
0.222631 0.561860 0.003158 -0.701123 -0.654200 0.283635
0.227077 0.578949 0.003158 -0.545572 0.530914 0.648446
0.251052 0.561699 0.003158 -0.551169 0.822419 0.140855
-0.260526 0.594818 0.003158 -0.035390 0.858266 -0.511984
-0.251053 0.591757 0.003158 -0.381926 0.917071 -0.114512
-0.241579 0.600002 0.002366 -0.447802 0.846033 -0.289312
-0.243649 0.600002 0.003158 -0.170088 0.869785 -0.463189
-0.213158 0.600002 0.000200 -0.474561 0.799305 0.368651
-0.207109 0.600002 0.003158 -0.168022 0.915696 0.365062
-0.203684 0.598079 0.003158 -0.347935 0.900440 -0.261055
-0.202461 0.600002 0.003158 0.078706 0.585411 -0.806907
-0.148086 0.600002 0.003158 0.225830 0.698770 0.678764
0.140920 0.600002 0.003158 0.240356 -0.585125 -0.774505
0.146842 0.590555 0.003158 -0.019074 -0.936246 -0.350827
0.156316 0.588700 0.003158 -0.133667 -0.990656 0.027095
0.165789 0.598598 0.003158 -0.304231 -0.690401 0.656346
0.175263 0.590114 0.003158 -0.881278 0.337456 -0.330867
0.175263 0.600002 -0.001981 -0.138276 -0.411519 0.900851
0.166319 0.600002 0.003158 -0.006685 0.866198 0.499656
0.178429 0.587428 -0.001255 -0.183678 0.182979 0.965806
0.184737 0.584996 0.003158 -0.476208 -0.854531 0.207373
0.184737 0.600002 0.001119 -0.495521 0.868289 -0.023087
0.179742 0.600002 0.003158 -0.482349 0.503996 -0.716469
0.194210 0.595327 0.003158 -0.961805 0.273156 0.017795
0.192958 0.600002 0.003158 -0.676906 0.617676 0.400344
0.203684 0.599474 0.003158 -0.765324 0.636845 -0.093319
0.213158 0.600002 0.002178 -0.361428 0.931097 0.049275
0.205437 0.600002 0.003158 -0.543710 0.837588 -0.053163
0.214670 0.600002 0.003158 -0.464250 0.816593 0.342997
0.222631 0.589221 0.003158 -0.436365 0.683915 0.584676
-0.241579 0.602174 0.003158 -0.395970 0.893282 -0.212733
-0.232105 0.611596 0.003158 -0.364934 0.788876 -0.494467
-0.222632 0.621055 0.003053 -0.477020 0.878404 0.029314
-0.223425 0.621055 0.003158 -0.105506 0.981236 -0.161381
-0.222218 0.621055 0.003158 -0.348058 0.885816 0.306897
-0.213158 0.608473 0.003158 -0.376962 0.755699 0.535555
-0.194211 0.617974 0.003158 -0.280442 0.951514 -0.126388
-0.184737 0.607840 0.003158 -0.196127 0.948975 0.246944
-0.175263 0.608750 0.003158 0.013100 0.994844 -0.100571
-0.165790 0.613720 0.003158 -0.134956 0.975994 -0.170945
-0.156316 0.614436 0.003158 0.176008 0.977697 0.114585
0.095500 0.621055 0.003158 0.152743 -0.426694 -0.891405
0.099474 0.614984 0.003158 0.108943 -0.993830 -0.020809
0.104611 0.621055 0.003158 0.327070 -0.400521 0.855925
0.112345 0.621055 0.003158 0.160382 -0.381036 -0.910543
0.118421 0.611519 0.003158 0.256546 -0.966139 0.027574
0.127895 0.621055 -0.002004 0.468837 -0.376800 0.798883
0.125355 0.621055 0.003158 0.172135 -0.423196 0.889536
0.137368 0.621055 -0.001359 0.924366 0.014391 -0.381236
0.144332 0.621055 0.003158 0.355852 0.609198 -0.708694
0.156316 0.621055 -0.002695 0.136113 0.873119 0.468121
0.156316 0.619694 0.003158 -0.236395 0.793922 0.560183
0.153087 0.621055 0.003158 0.046980 0.984829 0.167045
0.165789 0.600753 0.003158 -0.168636 0.761480 0.625868
0.184737 0.606071 0.003158 -0.445959 0.891695 0.077464
0.213158 0.600770 0.003158 -0.445485 0.891706 0.080021
-0.222632 0.621224 0.003158 -0.234077 0.969574 0.071654
0.099474 0.630949 0.003158 0.417908 0.839711 -0.346754
0.108947 0.642107 -0.002608 0.685403 0.041010 -0.727008
0.118421 0.635779 0.003158 0.355930 0.923298 -0.144344
0.118421 0.642107 -0.000304 0.944429 -0.296274 0.142389
0.146842 0.623722 0.003158 0.068153 0.995447 -0.066644
-0.099474 0.663160 -0.000228 0.555082 -0.672872 0.489006
0.106920 0.663160 0.003158 0.599672 0.592183 -0.538250
0.108947 0.660419 0.003158 0.560054 -0.718397 -0.412606
0.118421 0.650435 0.003158 0.577736 -0.816080 -0.015342
0.127895 0.651937 0.003158 0.260436 -0.869157 0.420404
0.133257 0.663160 0.003158 0.347962 0.255258 0.902090
-0.103122 0.684213 0.003158 0.208814 -0.514741 -0.831528
-0.099474 0.674367 0.003158 0.737265 -0.529006 0.420229
-0.090000 0.684213 -0.002428 0.648013 0.173724 0.741551
-0.096304 0.684213 0.003158 0.690031 -0.396947 0.605219
-0.071053 0.684213 -0.001300 0.746632 -0.659559 -0.086727
-0.033158 0.684213 0.000135 0.919523 -0.338039 -0.200516
-0.023684 0.684213 -0.000791 0.930634 -0.314046 0.187873
-0.014211 0.684213 -0.001620 0.965306 0.133989 0.224125
0.090000 0.684213 0.000114 0.814169 -0.282887 -0.507054
0.099474 0.684213 -0.001113 0.928636 -0.004664 0.370963
0.108947 0.664355 0.003158 0.564563 0.795671 -0.219490
0.118421 0.684213 0.002714 0.989875 0.060945 -0.128188
0.118421 0.680861 0.003158 0.447874 0.783931 -0.429954
0.127895 0.684213 0.000515 0.863197 0.367377 0.346302
0.127895 0.674639 0.003158 0.641055 0.696444 0.322513
0.137368 0.684213 -0.002011 0.812743 0.409487 0.414449
-0.105882 0.705265 0.003158 0.359857 -0.130934 -0.923775
-0.094503 0.705265 0.003158 0.357311 -0.220280 0.907637
-0.080526 0.695408 0.003158 0.658763 -0.730439 -0.180252
-0.085411 0.705265 0.003158 0.398092 -0.001099 -0.917345
-0.071053 0.699016 0.003158 0.371212 -0.926892 -0.055440
-0.061579 0.696364 0.003158 0.668333 -0.570364 0.477510
-0.052105 0.705265 -0.000553 0.757093 -0.392936 0.521930
-0.057680 0.705265 0.003158 0.402381 0.097376 0.910279
-0.034436 0.705265 0.003158 0.445162 0.160065 -0.881028
-0.033158 0.702149 0.003158 0.990117 0.117608 -0.076403
-0.031318 0.705265 0.003158 0.644168 0.445121 0.622024
-0.023684 0.705265 -0.001541 0.509569 0.106653 0.853794
-0.004737 0.704158 0.003158 0.583485 -0.544949 -0.602143
-0.005176 0.705265 0.003158 0.456328 0.427472 -0.780406
0.004737 0.702544 0.003158 0.579156 -0.634468 0.511887
0.005956 0.705265 0.003158 0.399637 0.476759 0.782937
0.023684 0.705265 0.000312 0.919341 0.248695 -0.304898
0.041493 0.705265 0.003158 0.453074 -0.066720 -0.888973
0.042631 0.703605 0.003158 0.516120 -0.757011 -0.400693
0.052105 0.695832 0.003158 0.361242 -0.932456 -0.005449
0.061579 0.704212 0.003158 0.467450 -0.876542 0.114735
0.071052 0.699918 0.003158 0.456509 -0.877956 -0.144195
0.080526 0.696779 0.003158 0.391368 -0.913631 -0.110042
0.090000 0.695184 0.003158 0.532281 -0.840218 -0.103498
0.099474 0.691870 0.003158 0.561710 -0.809819 0.169337
0.108947 0.699952 0.003158 0.543008 -0.839437 0.022080
0.118421 0.687188 0.003158 0.786900 -0.546196 -0.287154
0.121274 0.705265 0.003158 0.225814 0.116956 0.967124
-0.108947 0.726318 -0.000220 0.763775 -0.238435 -0.599830
-0.104708 0.726318 0.003158 0.506297 0.120261 -0.853933
-0.090000 0.720114 0.003158 0.645844 0.315390 0.695281
-0.080526 0.712081 0.003158 0.518170 0.847730 -0.113372
-0.080526 0.726318 -0.001129 0.846632 -0.532010 0.013379
-0.088501 0.726318 0.003158 0.584724 0.158801 0.795537
-0.071053 0.726318 0.001602 0.991701 0.108426 -0.069080
-0.071053 0.710025 0.003158 0.761055 0.648453 -0.017438
-0.061579 0.726318 0.000407 0.922119 -0.386881 0.004457
-0.061579 0.714547 0.003158 0.670302 0.725512 0.155975
-0.052105 0.726318 0.000954 0.993515 0.112562 0.016038
-0.042632 0.726318 0.000309 0.984473 -0.170102 0.043329
-0.033158 0.708461 0.003158 0.712098 0.628369 -0.313161
-0.033158 0.726318 0.000424 0.927066 -0.374852 0.005880
-0.023684 0.726318 0.000276 0.934196 -0.088367 0.345642
-0.004737 0.706393 0.003158 0.677954 0.598150 -0.427312
-0.004737 0.726318 0.000402 0.976439 0.215485 -0.011567
0.004737 0.726318 -0.002481 0.711138 -0.435798 0.551691
0.004737 0.707723 0.003158 0.622397 0.759023 0.191065
0.023684 0.726318 -0.002488 0.631277 -0.405370 -0.661184
0.033158 0.717952 0.003158 0.745236 -0.031497 -0.666057
0.030918 0.726318 0.003158 0.506513 -0.032635 -0.861614
0.042631 0.706948 0.003158 0.503439 0.751946 -0.425589
0.042631 0.726318 -0.002034 0.780378 -0.563260 0.271567
0.035958 0.726318 0.003158 0.591177 0.030331 0.805972
0.052105 0.726318 -0.000135 0.994693 -0.071806 0.073693
0.052105 0.714657 0.003158 0.508623 0.859219 -0.055189
0.061579 0.706480 0.003158 0.711493 0.674833 0.195905
0.071052 0.726318 0.002436 0.696138 0.629327 -0.345456
0.071052 0.722464 0.003158 0.514262 0.700293 -0.495100
0.080526 0.726318 0.002905 0.963106 -0.242759 -0.116164
0.080526 0.725028 0.003158 0.871511 0.481970 -0.090401
0.083011 0.726318 0.003158 0.972351 -0.088668 -0.216036
0.119752 0.726318 0.003158 0.698693 0.051515 0.713564
-0.108947 0.747371 0.001213 0.946705 0.006220 -0.322043
-0.099474 0.740317 0.003158 0.882940 0.042519 -0.467556
-0.099474 0.747371 -0.002581 0.556432 -0.828554 -0.062297
-0.097124 0.747371 0.003158 0.644165 -0.389938 -0.658028
-0.080526 0.742442 0.003158 0.765049 -0.643699 0.018746
-0.071053 0.735963 0.003158 0.644489 -0.755444 -0.118063
-0.061579 0.734875 0.003158 0.699417 -0.664686 0.262695
-0.056687 0.747371 0.003158 0.385671 -0.307090 0.870031
-0.052105 0.747371 -0.000492 0.566778 -0.797494 0.206799
-0.046478 0.747371 0.003158 0.517037 -0.253838 -0.817459
-0.042632 0.738180 0.003158 0.606144 -0.754332 -0.252137
-0.033158 0.735269 0.003158 0.620706 -0.774250 0.123538
-0.025362 0.747371 0.003158 0.640254 0.009251 0.768108
-0.023684 0.747371 0.001997 0.688640 -0.725069 -0.007110
-0.014211 0.739329 0.003158 0.734691 -0.670941 0.100337
-0.021274 0.747371 0.003158 0.710155 -0.138731 -0.690242
-0.004737 0.747371 0.000758 0.767451 -0.638565 -0.057045
-0.009296 0.747371 0.003158 0.560596 0.102748 0.821690
-0.000686 0.747371 0.003158 0.520787 -0.178727 -0.834768
0.004737 0.737609 0.003158 0.708092 -0.625109 0.328398
0.014210 0.747371 -0.000594 0.824348 -0.245342 0.510155
0.009002 0.747371 0.003158 0.444578 0.027126 0.895329
0.030137 0.747371 0.003158 0.409175 -0.041487 -0.911512
0.042631 0.747371 0.000557 0.956273 -0.290297 0.035628
0.037731 0.747371 0.003158 0.657092 -0.118174 0.744490
0.049596 0.747371 0.003158 0.746855 -0.266883 -0.609082
0.052105 0.742817 0.003158 0.830302 -0.556882 -0.021945
0.061579 0.747371 0.001500 0.786166 -0.065083 0.614578
0.057227 0.747371 0.003158 0.796246 -0.459606 0.393390
0.080526 0.727336 0.003158 0.754719 -0.645980 -0.114495
0.076154 0.747371 0.003158 0.381545 0.076367 -0.921190
0.118421 0.747371 0.001050 0.667258 0.039164 0.743796
0.118421 0.732685 0.003158 0.671306 0.355839 0.650175
0.114847 0.747371 0.003158 0.580470 -0.285008 0.762774
-0.146842 0.768423 -0.000687 0.642707 -0.664212 -0.381772
-0.134310 0.768423 0.003158 0.549178 -0.758579 -0.350659
-0.127895 0.764843 0.003158 0.406383 -0.889005 -0.211003
-0.118421 0.760236 0.003158 0.595130 -0.798536 -0.090334
-0.108947 0.759845 0.003158 0.584248 -0.755327 -0.296877
-0.099474 0.751213 0.003158 0.461103 -0.801441 -0.380889
-0.052105 0.757425 0.003158 0.729247 -0.682095 -0.054281
-0.023684 0.768423 -0.002728 0.759945 0.071397 0.646055
-0.031081 0.768423 0.003158 0.482617 0.435826 0.759695
-0.014211 0.755438 0.003158 0.379369 0.925102 -0.016290
0.004737 0.757127 0.003158 0.500664 0.857417 0.119047
0.014210 0.768423 -0.000195 0.948202 0.259043 -0.183876
0.023684 0.768423 -0.001399 0.885986 -0.445716 -0.127927
0.029552 0.768423 0.003158 0.491185 -0.001797 -0.871053
0.042631 0.768423 0.001332 0.970508 -0.085596 0.225362
0.039085 0.768423 0.003158 0.694630 0.185299 0.695093
0.047418 0.768423 0.003158 0.770875 -0.074008 -0.632673
0.061579 0.759559 0.003158 0.810990 -0.328334 0.484244
0.071052 0.768423 -0.000756 0.772307 0.404906 0.489482
0.064385 0.768423 0.003158 0.789314 0.343475 0.508929
0.080080 0.768423 0.003158 0.770122 -0.160453 -0.617387
0.118421 0.752536 0.003158 0.218630 -0.675405 0.704294
0.123054 0.768423 0.003158 -0.131520 -0.230500 0.964143
-0.148857 0.789476 0.003158 0.121983 -0.098261 -0.987656
-0.146842 0.783643 0.003158 0.219029 -0.753807 -0.619517
-0.137369 0.772111 0.003158 0.175122 -0.875912 -0.449567
-0.033158 0.789476 0.000208 0.928165 -0.215415 0.303491
-0.033158 0.774714 0.003158 0.746838 0.508686 0.428335
-0.041376 0.789476 0.003158 0.778140 -0.092810 0.621196
-0.023684 0.789476 -0.001666 0.872940 -0.487216 0.024417
-0.014211 0.789476 0.002385 0.896450 -0.353268 -0.267544
0.004737 0.789476 -0.000810 0.935704 -0.269325 -0.227864
0.014210 0.789476 -0.001657 0.727601 -0.629772 -0.271999
0.019230 0.789476 0.003158 0.372159 -0.338042 -0.864422
0.023684 0.778764 0.003158 0.717451 -0.553826 -0.422541
0.028607 0.789476 0.003158 0.423878 -0.303717 0.853278
0.033158 0.789476 -0.000934 0.813205 -0.557819 0.165939
0.033158 0.776653 0.003158 0.883932 0.467527 0.009090
0.042631 0.789476 0.001682 0.901894 -0.201797 -0.381923
0.049402 0.789476 0.003158 0.855095 -0.389233 -0.342506
0.061579 0.789476 0.000304 0.849387 -0.133569 0.510589
0.061579 0.771708 0.003158 0.742404 0.606368 0.284876
0.053457 0.789476 0.003158 0.748588 -0.177393 0.638865
0.080526 0.769978 0.003158 0.568609 0.532062 -0.627371
0.088669 0.789476 0.003158 0.870983 0.023024 -0.490774
0.099474 0.779190 0.003158 0.446698 0.891696 -0.073064
0.090946 0.789476 0.003158 0.445057 0.547494 0.708643
0.107601 0.789476 0.003158 0.362502 0.479677 -0.799063
0.122912 0.789476 0.003158 0.093813 0.078876 0.992460
-0.175263 0.798976 0.003158 -0.915387 -0.116159 -0.385451
-0.177083 0.810529 0.003158 -0.397770 0.452997 -0.797855
-0.171283 0.810529 0.003158 -0.694723 0.469658 0.544776
-0.149596 0.810529 0.003158 -0.089378 0.199420 -0.975830
-0.137369 0.806862 0.003158 0.357487 0.723519 0.590527
-0.140578 0.810529 0.003158 -0.217415 0.581905 0.783657
-0.127895 0.810529 -0.001569 0.702188 0.336624 -0.627389
-0.127895 0.794048 0.003158 0.499335 0.847929 0.177990
-0.122729 0.810529 0.003158 0.304406 0.199398 -0.931438
-0.033158 0.800844 0.003158 0.351478 -0.932547 0.082576
-0.023684 0.800527 0.003158 0.379818 -0.910279 -0.164710
-0.014211 0.792008 0.003158 0.626607 -0.751951 0.204779
-0.004737 0.800555 0.003158 0.183295 -0.978467 0.094900
0.004737 0.800683 0.003158 0.417402 -0.907245 0.051797
0.014210 0.803420 0.003158 0.480523 -0.845821 -0.231702
0.033158 0.799762 0.003158 0.447092 -0.890068 0.088808
0.042631 0.794260 0.003158 0.545045 -0.798072 -0.256918
0.061579 0.799862 0.003158 0.535967 -0.796815 0.278970
0.071052 0.810529 0.002892 0.356051 -0.845269 0.398432
0.070774 0.810529 0.003158 0.462271 -0.726309 0.508705
0.072814 0.810529 0.003158 0.420740 -0.872374 -0.248879
0.080526 0.803512 0.003158 0.458814 -0.808895 -0.367666
0.099474 0.799940 0.003158 0.304853 -0.952026 -0.026673
0.118421 0.810529 -0.000270 -0.152741 -0.148742 0.977009
0.118421 0.807614 0.003158 0.185965 -0.525360 0.830310
0.115114 0.810529 0.003158 0.408157 0.377959 0.830996
-0.175263 0.815558 0.003158 -0.460880 0.843737 -0.275132
-0.146842 0.822811 0.003158 -0.273779 0.804723 -0.526751
-0.146842 0.831581 0.000429 0.461042 0.882123 -0.096436
-0.118421 0.823623 0.003158 -0.026216 0.491792 -0.870318
-0.113469 0.831581 0.003158 -0.216309 0.641952 -0.735601
0.071052 0.811331 0.003158 0.167925 -0.863548 0.475486
0.111876 0.831581 0.003158 -0.718135 0.653690 0.238687
-0.109985 0.852634 0.003158 -0.109341 0.258816 -0.959718
-0.023684 0.844159 0.003158 0.561681 0.823088 0.083909
-0.029623 0.852634 0.003158 0.231554 0.520173 0.822072
-0.017497 0.852634 0.003158 0.127497 0.587499 -0.799118
-0.004737 0.852634 0.002121 0.869160 0.418536 0.263416
-0.004737 0.850898 0.003158 0.579470 0.760363 0.293365
-0.006971 0.852634 0.003158 0.598811 0.515579 0.612866
0.004737 0.852634 0.001914 0.971317 0.131688 -0.197995
0.004737 0.847525 0.003158 0.588624 0.807399 0.040368
0.007500 0.852634 0.003158 0.647682 -0.052337 -0.760111
0.071052 0.852634 -0.001006 0.364724 0.914995 0.172514
0.071052 0.847654 0.003158 0.510449 0.810373 0.287641
0.067317 0.852634 0.003158 0.450667 0.140741 0.881528
0.080526 0.852634 0.000075 0.578535 0.670169 -0.464941
0.080526 0.850531 0.003158 0.209709 0.951712 -0.224202
0.083288 0.852634 0.003158 -0.144832 0.534473 -0.832684
0.099474 0.845359 0.003158 -0.365948 0.808764 0.460416
0.094200 0.852634 0.003158 -0.181870 0.468455 0.864565
0.108947 0.833285 0.003158 -0.290209 0.844748 0.449644
-0.108947 0.873687 0.000649 -0.264110 -0.806073 -0.529616
-0.109752 0.873687 0.003158 -0.145036 -0.699352 -0.699908
-0.099474 0.873687 -0.000724 -0.450653 0.627014 -0.635426
-0.052105 0.873687 -0.000980 0.728447 0.477615 -0.491171
-0.052105 0.870852 0.003158 0.720081 0.692048 -0.050523
-0.054787 0.873687 0.003158 0.610895 -0.164659 0.774400
-0.048653 0.873687 0.003158 0.738784 0.449073 -0.502525
-0.023684 0.873687 0.002627 0.748995 0.658016 0.077601
-0.026488 0.873687 0.003158 0.988188 -0.100430 0.115748
-0.014211 0.871927 0.003158 0.542140 -0.838219 -0.058924
-0.014211 0.873687 0.002521 0.842361 -0.536798 0.047704
-0.004737 0.873687 0.001915 0.950723 -0.296868 -0.089418
0.002189 0.873687 0.003158 0.811762 -0.561081 -0.161959
0.004737 0.871781 0.003158 0.850583 0.006205 -0.525804
0.071052 0.867521 0.003158 0.700066 -0.182382 0.690394
0.071052 0.873687 -0.000111 -0.812113 0.351568 0.465695
0.077358 0.873687 0.003158 0.453294 -0.102777 0.885416
0.088512 0.873687 0.003158 -0.651364 0.237474 -0.720646
0.090000 0.873687 0.002938 -0.809128 -0.543306 -0.223898
0.099474 0.870334 0.003158 -0.907462 -0.268473 0.323164
0.099474 0.873687 -0.000570 -0.587564 0.788531 0.181623
0.103488 0.873687 0.003158 -0.348077 -0.777490 0.523787
-0.417844 0.894739 0.003158 -0.218817 -0.526985 0.821222
-0.402661 0.894739 0.003158 0.092722 -0.454214 -0.886054
-0.402632 0.894704 0.003158 -0.105247 -0.981280 -0.161282
