ply
format ascii 1.0
element vertex 833
property float x
property float y
property float z
property float nx
property float ny
property float nz
end_header
-0.213158 0.548401 0.047369 0.395978 0.898825 -0.187922
-0.012051 0.557897 0.047369 -0.348059 -0.474921 -0.808273
-0.004737 0.541847 0.047369 -0.210420 -0.735432 -0.644099
-0.298421 0.558212 0.047369 0.638358 0.394325 -0.661065
-0.298421 0.578949 0.042273 0.427986 0.345050 -0.835325
-0.288947 0.578949 0.046495 0.823993 0.268027 -0.499197
-0.288947 0.576667 0.047369 0.695387 0.649075 -0.308445
-0.286459 0.578949 0.047369 0.935288 0.239958 -0.260110
-0.251053 0.563804 0.047369 0.599802 0.620476 0.505220
-0.258557 0.578949 0.047369 0.724374 0.307214 0.617172
-0.232105 0.578949 0.042088 0.230228 0.356952 0.905307
-0.232105 0.568092 0.047369 0.641591 0.701511 0.310231
-0.014211 0.578949 0.045668 -0.484858 0.279733 -0.828651
-0.015551 0.578949 0.047369 -0.347708 0.284227 -0.893484
-0.014211 0.573407 0.047369 -0.318887 -0.421213 -0.849053
-0.310511 0.600002 0.047369 0.083106 -0.570667 -0.816966
-0.307895 0.597244 0.047369 0.162759 -0.898574 -0.407521
-0.298421 0.591446 0.047369 0.249520 -0.916273 -0.313342
-0.288947 0.584306 0.047369 0.870098 -0.395384 -0.294280
-0.251053 0.600002 0.046725 0.717490 -0.142992 0.681735
-0.252166 0.600002 0.047369 0.818018 0.157040 0.553339
-0.014211 0.581175 0.047369 -0.232038 0.725810 -0.647578
-0.004737 0.600002 0.045847 -0.303549 0.698282 -0.648274
-0.005469 0.600002 0.047369 -0.108035 0.667970 -0.736305
-0.417673 0.621055 0.047369 -0.030896 -0.926202 0.375760
-0.402632 0.621055 0.046512 -0.044450 -0.986990 -0.154517
-0.403153 0.621055 0.047369 -0.054737 -0.966408 -0.251117
-0.402632 0.620458 0.047369 -0.038963 -0.923541 -0.381516
-0.393158 0.618761 0.047369 -0.115151 -0.991957 0.052559
-0.388271 0.621055 0.047369 0.014606 -0.997401 0.070548
-0.374211 0.621055 0.046545 -0.042589 -0.998098 0.044568
-0.375417 0.621055 0.047369 -0.009593 -0.999156 -0.039942
-0.374211 0.620228 0.047369 -0.004890 -0.994615 0.103523
-0.373769 0.621055 0.047369 0.022071 -0.994444 0.102926
-0.336316 0.621055 0.047021 -0.093101 -0.993671 -0.062854
-0.339858 0.621055 0.047369 -0.102095 -0.994311 -0.030381
-0.336316 0.620860 0.047369 -0.002906 -0.998547 -0.053815
-0.326842 0.619403 0.047369 -0.046608 -0.994670 -0.091972
-0.317368 0.616228 0.047369 0.073153 -0.977031 -0.200149
-0.288947 0.614787 0.047369 0.504180 0.852496 0.138032
-0.291254 0.621055 0.047369 -0.014127 -0.809809 0.586524
-0.285736 0.621055 0.047369 0.025114 -0.739870 -0.672280
-0.260526 0.621055 0.041296 0.114600 0.788215 0.604635
-0.260526 0.615085 0.047369 0.567303 0.703879 0.427459
-0.266890 0.621055 0.047369 0.561106 -0.455361 0.691235
-0.004737 0.602119 0.047369 -0.200306 0.661941 -0.722296
0.004737 0.621055 0.045585 -0.296493 0.794755 -0.529581
0.003498 0.621055 0.047369 -0.050041 0.823075 -0.565723
-0.412105 0.623606 0.047369 -0.034879 -0.999208 0.019128
-0.383684 0.621544 0.047369 -0.008703 -0.999941 0.006479
-0.364737 0.622362 0.047369 -0.004506 -0.999286 0.037522
-0.355263 0.621900 0.047369 -0.069041 -0.997237 -0.027428
-0.345789 0.621430 0.047369 -0.038584 -0.998903 -0.026545
-0.288947 0.622644 0.047369 -0.066571 -0.994865 0.076233
-0.260526 0.628979 0.047369 0.137116 -0.869385 0.474731
-0.251053 0.637048 0.047369 -0.062917 -0.954070 0.292902
-0.243030 0.642107 0.047369 -0.077799 -0.960594 0.266844
0.004737 0.622437 0.047369 -0.114860 0.913466 -0.390368
0.014210 0.630277 0.047369 -0.070016 0.905831 -0.417814
0.023684 0.641978 0.047369 -0.018888 0.925511 -0.378248
0.023924 0.642107 0.047369 0.058726 0.934736 -0.350457
-0.241579 0.643387 0.047369 -0.248792 -0.899834 0.358331
-0.232105 0.653458 0.047369 -0.566480 -0.534266 0.627424
-0.232105 0.663160 0.042206 -0.497011 -0.094475 0.862586
-0.230275 0.663160 0.047369 -0.272208 -0.347236 0.897402
0.033158 0.657306 0.047369 -0.073925 0.587253 -0.806021
0.034615 0.663160 0.047369 0.081218 0.489598 -0.868158
-0.222632 0.679311 0.047369 -0.559059 -0.676596 0.479240
-0.222632 0.684213 0.043764 -0.625033 -0.717674 0.307047
-0.213158 0.669513 0.047369 -0.516342 -0.745271 -0.421855
-0.213158 0.684213 0.045454 -0.743886 -0.623413 0.240809
-0.204051 0.684213 0.047369 -0.864497 -0.398750 0.306012
0.042631 0.684213 0.046262 -0.129481 0.717659 -0.684252
0.042492 0.684213 0.047369 0.041455 0.581931 -0.812181
-0.213158 0.705265 0.042603 -0.810957 -0.149478 0.565690
-0.203684 0.684914 0.047369 -0.901865 -0.329470 0.279444
-0.203684 0.705265 0.044919 -0.943605 0.004504 0.331042
-0.194211 0.700184 0.047369 -0.838867 -0.357364 0.410600
-0.194211 0.705265 0.046643 -0.843134 0.351875 0.406582
-0.192884 0.705265 0.047369 -0.669162 0.100306 0.736316
0.042631 0.684881 0.047369 0.013034 0.775908 -0.630711
0.052105 0.689946 0.047369 0.268588 0.656280 -0.705093
0.054992 0.705265 0.047369 0.318004 0.446816 -0.836199
-0.222632 0.726318 0.041084 -0.868927 0.400739 0.290472
-0.213158 0.726318 0.046153 -0.563781 0.567174 0.600388
-0.209008 0.726318 0.047369 -0.558757 0.769891 0.308316
-0.203684 0.719338 0.047369 -0.573969 0.694454 0.433928
-0.194211 0.707666 0.047369 -0.553314 0.705389 0.443023
0.061579 0.719873 0.047369 0.343314 0.814247 -0.468120
0.071052 0.721983 0.047369 0.421792 0.891918 -0.163012
0.078730 0.726318 0.047369 0.422859 0.890254 -0.169227
-0.222632 0.747371 0.045353 -0.648136 0.464612 0.603370
-0.219558 0.747371 0.047369 -0.412496 0.537111 0.735771
-0.213158 0.729533 0.047369 -0.286962 0.711097 0.641868
0.080526 0.726910 0.047369 0.293556 0.921396 -0.254667
0.090000 0.738638 0.047369 0.272901 0.927607 -0.255091
0.099474 0.737578 0.047369 0.213614 0.969091 -0.123413
0.108947 0.747371 0.042325 0.195776 0.925396 -0.324522
0.108947 0.743478 0.047369 0.132999 0.943125 -0.304673
0.113099 0.747371 0.047369 0.151778 0.918756 -0.364486
-0.241579 0.768423 0.041273 -0.742075 0.526776 0.414525
-0.232105 0.768423 0.042013 -0.633915 0.679707 0.368984
-0.225159 0.768423 0.047369 -0.567966 0.446751 0.691251
-0.222632 0.758641 0.047369 -0.451607 0.427041 0.783382
0.118421 0.752032 0.047369 0.107211 0.873535 -0.474808
0.126732 0.768423 0.047369 0.296860 0.494720 -0.816778
-0.251053 0.789476 0.046718 -0.543245 0.654067 0.526385
-0.249598 0.789476 0.047369 -0.474459 0.806357 0.353096
-0.241579 0.782727 0.047369 -0.280260 0.913800 0.293979
-0.232105 0.778797 0.047369 -0.318854 0.875450 0.363206
0.127895 0.789031 0.047369 0.425935 0.082277 -0.901005
0.127895 0.789476 0.047301 0.350915 -0.067618 -0.933963
0.127960 0.789476 0.047369 0.634009 -0.118941 -0.764124
-0.251053 0.795207 0.047369 -0.379489 0.410365 0.829209
-0.253111 0.810529 0.047369 -0.505993 -0.131684 0.852426
0.126878 0.810529 0.047369 0.427411 -0.029974 -0.903560
0.127895 0.789924 0.047369 0.430737 -0.158406 -0.888467
-0.251053 0.818964 0.047369 -0.332981 -0.486416 0.807789
-0.251053 0.831581 0.041814 -0.322692 -0.355066 0.877381
-0.247899 0.831581 0.047369 -0.353087 -0.348816 0.868134
0.126019 0.831581 0.047369 0.407398 -0.174114 -0.896500
-0.251053 0.852229 0.047369 -0.239293 0.111749 0.964495
-0.251090 0.852634 0.047369 -0.215638 -0.197157 0.956363
0.118421 0.852634 0.043833 0.497061 -0.051179 -0.866205
0.121389 0.852634 0.047369 0.461997 -0.294199 -0.836664
-0.251053 0.852735 0.047369 -0.105035 -0.744441 0.659375
-0.243198 0.873687 0.047369 -0.056960 -0.731307 0.679666
0.118421 0.873687 0.042217 0.545831 -0.534667 -0.645135
0.122953 0.873687 0.047369 0.609757 -0.068662 -0.789609
-0.241579 0.876048 0.047369 -0.116822 -0.919002 0.376548
-0.232105 0.880187 0.047369 -0.175370 -0.956881 0.231568
-0.222632 0.884582 0.047369 -0.188408 -0.905364 0.380551
-0.214491 0.894739 0.047369 -0.269221 -0.662836 0.698690
0.108947 0.894739 0.044777 0.539290 -0.470651 -0.698322
0.112299 0.894739 0.047369 0.507779 -0.588018 -0.629599
0.118421 0.884758 0.047369 0.554406 -0.615583 -0.560082
-0.213158 0.912603 0.047369 -0.637762 -0.215547 0.739459
-0.213158 0.915792 0.046971 -0.701367 0.080054 0.708291
-0.212350 0.915792 0.047369 -0.740401 -0.215037 0.636840
0.107266 0.915792 0.047369 0.519453 -0.234893 -0.821580
0.108947 0.908232 0.047369 0.516934 -0.428960 -0.740792
-0.222632 0.934590 0.047369 -0.653573 0.304585 0.692871
-0.223324 0.936845 0.047369 -0.389723 0.050725 0.919534
-0.213158 0.919846 0.047369 -0.641954 0.341203 0.686640
0.108947 0.927440 0.047369 0.499879 0.079931 -0.862399
0.108947 0.936845 0.045827 0.323353 -0.622093 -0.713052
0.109787 0.936845 0.047369 0.366042 -0.404366 -0.838154
-0.222991 0.957897 0.047369 -0.275603 -0.269105 0.922836
-0.213158 0.957897 0.042304 -0.974630 -0.163819 -0.152509
-0.221026 0.957897 0.047369 -0.634865 -0.547967 -0.544682
-0.213158 0.943062 0.047369 -0.710125 -0.651938 0.265893
-0.203684 0.956068 0.047369 -0.553928 -0.688055 0.468768
-0.203684 0.957897 0.046917 -0.751869 -0.406732 0.518905
-0.202871 0.957897 0.047369 -0.591028 -0.563895 0.576809
0.088988 0.957897 0.047369 0.228468 -0.637625 -0.735688
0.090000 0.955166 0.047369 0.453108 -0.760575 -0.464992
0.099474 0.951614 0.047369 0.352644 -0.848829 -0.393867
0.108947 0.938664 0.047369 0.337843 -0.754623 -0.562500
-0.222632 0.960703 0.047369 -0.721295 -0.422770 0.548634
-0.412174 -0.957895 0.053685 -0.133411 0.051595 -0.989717
-0.412105 -0.958020 0.053685 -0.788697 0.266329 0.554099
-0.412059 -0.957895 0.053685 -0.160152 0.112226 0.980692
-0.268798 -0.957895 0.053685 0.009253 -0.308531 -0.951169
-0.184737 -0.957895 0.053579 0.804734 0.118472 0.581693
-0.184737 -0.958402 0.053685 0.197226 0.598966 0.776106
-0.185329 -0.957895 0.053685 0.776968 0.293786 0.556786
-0.175263 -0.957895 0.048053 0.968398 0.188897 0.162862
-0.165790 -0.957895 0.050467 0.954757 0.215683 0.204742
-0.004737 -0.964496 0.053685 -0.017338 0.953462 -0.301014
0.004737 -0.957895 0.052947 0.014658 0.635547 -0.771923
0.004522 -0.957895 0.053685 -0.343823 0.811364 -0.472731
0.222631 -0.957895 0.053678 -0.256392 -0.786937 0.561242
0.383684 -0.962139 0.053685 -0.350516 0.859535 0.371939
0.380843 -0.957895 0.053685 -0.178179 0.563160 0.806910
0.393158 -0.959711 0.053685 -0.206466 0.973022 -0.102954
0.402631 -0.958755 0.053685 -0.448885 0.892483 -0.044469
0.412105 -0.958144 0.053685 -0.700409 0.527728 0.480553
0.412105 -0.957895 0.051798 -0.400935 0.658982 0.636392
0.410786 -0.957895 0.053685 -0.590499 0.804786 -0.060253
0.412143 -0.957895 0.053685 -0.401663 0.381531 0.832527
-0.412105 -0.956473 0.053685 -0.062634 0.251960 0.965709
-0.279233 -0.936842 0.053685 -0.420477 -0.504763 -0.753932
-0.270000 -0.953240 0.053685 -0.104157 -0.647881 -0.754587
-0.184737 -0.956213 0.053685 0.453384 -0.295158 0.841026
-0.182529 -0.936842 0.053685 -0.054484 -0.328948 0.942775
0.004737 -0.957154 0.053685 -0.171050 0.216035 -0.961286
0.006229 -0.936842 0.053685 -0.052119 -0.114580 -0.992046
0.381144 -0.936842 0.053685 -0.167405 -0.345576 0.923338
0.393158 -0.936842 0.047933 -0.602292 -0.775141 -0.190789
0.389000 -0.936842 0.053685 -0.231080 -0.533967 -0.813315
0.393158 -0.953255 0.053685 -0.714435 -0.575960 -0.397305
0.402631 -0.956309 0.053685 -0.898467 -0.435587 -0.054961
0.402631 -0.936842 0.049276 -0.615188 -0.490712 0.617045
0.412105 -0.957699 0.053685 -0.012190 0.744680 0.667310
0.406577 -0.936842 0.053685 -0.506462 -0.346596 0.789536
-0.279474 -0.915789 0.052183 -0.773679 0.061035 -0.630631
-0.282199 -0.915789 0.053685 -0.707695 -0.125887 -0.695212
-0.279474 -0.934644 0.053685 -0.429924 -0.200907 -0.880228
-0.175263 -0.917837 0.053685 -0.460727 -0.884015 0.079049
-0.165790 -0.926788 0.053685 0.011814 -0.964037 0.265506
-0.156316 -0.915988 0.053685 -0.029719 -0.995063 0.094690
-0.146842 -0.916831 0.053685 -0.017499 -0.998334 -0.054986
-0.137369 -0.918277 0.053685 -0.024385 -0.985717 0.166636
-0.134251 -0.915789 0.053685 -0.361061 -0.346373 0.865829
-0.004737 -0.915789 0.051336 0.345521 -0.108724 -0.932092
-0.003628 -0.915789 0.053685 -0.157658 -0.343768 -0.925725
0.004737 -0.930255 0.053685 -0.130678 -0.617198 -0.775880
0.383684 -0.929551 0.053685 -0.115763 -0.963467 0.241518
0.412105 -0.925165 0.053685 -0.477059 -0.750739 0.456953
-0.279474 -0.906858 0.053685 -0.730094 0.596235 -0.333865
-0.270000 -0.901866 0.053685 -0.458525 0.778198 -0.429142
-0.260526 -0.894737 0.049149 -0.474821 0.703167 -0.529246
-0.265247 -0.894737 0.053685 -0.546458 0.631602 -0.549966
-0.203684 -0.901885 0.053685 -0.596770 0.674331 0.434905
-0.205758 -0.894737 0.053685 -0.419888 0.622497 0.660448
-0.194211 -0.904419 0.053685 -0.555075 0.831582 0.019045
-0.184737 -0.903330 0.053685 -0.523615 0.816569 0.242987
-0.175263 -0.913908 0.053685 -0.259724 0.960171 0.103033
-0.165790 -0.903534 0.053685 -0.460373 0.885811 -0.058273
-0.156316 -0.915208 0.053685 -0.037570 0.971492 0.234077
-0.146842 -0.912129 0.053685 0.055111 0.985004 -0.163491
-0.137369 -0.906885 0.053685 -0.367285 0.889487 0.271872
0.000748 -0.894737 0.053685 -0.256273 0.521844 -0.813636
0.412105 -0.894737 0.050817 -0.523376 0.268757 0.808608
0.415920 -0.894737 0.053685 -0.727295 0.564224 0.390761
-0.393158 -0.873684 0.051338 -0.919210 -0.392037 -0.036890
-0.400127 -0.873684 0.053685 -0.635713 -0.578762 -0.510787
-0.393158 -0.883655 0.053685 -0.639718 -0.733184 -0.230656
-0.383684 -0.882352 0.053685 -0.728021 -0.683028 0.058807
-0.383684 -0.873684 0.052212 -0.929222 -0.367754 0.036101
-0.374211 -0.879520 0.053685 -0.785618 -0.546509 0.290055
-0.374211 -0.873684 0.052148 -0.881677 -0.266829 0.389164
-0.371254 -0.873684 0.053685 -0.753373 -0.307380 0.581332
-0.345789 -0.873684 0.052570 -0.942146 -0.323367 -0.088290
-0.347552 -0.873684 0.053685 -0.686673 -0.227851 -0.690336
-0.345789 -0.880450 0.053685 -0.876172 -0.431420 -0.214941
-0.341652 -0.873684 0.053685 -0.818958 -0.420454 0.390547
-0.326842 -0.873684 0.052314 -0.790048 -0.595672 -0.144909
-0.331082 -0.873684 0.053685 -0.804518 -0.447901 -0.390044
-0.326842 -0.883502 0.053685 -0.856642 -0.468124 -0.216853
-0.317368 -0.877695 0.053685 -0.872101 -0.486375 0.053667
-0.317368 -0.873684 0.052832 -0.826299 -0.561761 -0.040674
-0.307895 -0.879500 0.053685 -0.812011 -0.575080 -0.099604
-0.307895 -0.873684 0.051894 -0.741455 -0.655978 -0.141199
-0.298421 -0.887702 0.053685 -0.833769 -0.550956 0.035723
-0.298421 -0.873684 0.050734 -0.751847 -0.598034 0.277634
-0.292656 -0.873684 0.053685 -0.747182 -0.428130 0.508353
-0.279474 -0.873684 0.052832 -0.875904 -0.205727 0.436428
-0.282092 -0.873684 0.053685 -0.852735 -0.389080 -0.348510
-0.279474 -0.878271 0.053685 -0.956027 -0.247929 0.156666
-0.278695 -0.873684 0.053685 -0.531947 0.142796 0.834651
-0.260526 -0.881043 0.053685 -0.580663 0.570025 -0.581293
-0.251053 -0.873684 0.048078 -0.618564 0.609209 -0.496229
-0.255940 -0.873684 0.053685 -0.625884 0.243677 -0.740872
-0.241579 -0.873684 0.052667 -0.765199 0.643731 0.008961
-0.222632 -0.876687 0.053685 -0.514823 0.843599 0.152635
-0.225843 -0.873684 0.053685 -0.324536 0.763664 0.558117
-0.213158 -0.876063 0.053685 -0.420016 0.809013 0.411200
0.004737 -0.885373 0.053685 -0.307405 0.671445 -0.674287
0.010475 -0.873684 0.053685 -0.400911 0.447802 -0.799214
0.412105 -0.873684 0.049939 -0.598026 -0.231554 0.767299
-0.402632 -0.852631 0.048725 -0.607809 -0.689672 -0.393601
-0.407929 -0.852631 0.053685 -0.421109 -0.409850 -0.809129
-0.402632 -0.867988 0.053685 -0.702275 -0.539030 -0.465034
-0.393158 -0.852631 0.048085 -0.553533 -0.787364 0.271402
-0.383684 -0.852631 0.051685 -0.849413 -0.514278 0.118387
-0.374211 -0.852631 0.051126 -0.848618 -0.481607 0.218866
-0.369153 -0.852631 0.053685 -0.736867 -0.425840 0.525060
-0.345789 -0.852631 0.049971 -0.707721 -0.604697 -0.365340
-0.352217 -0.852631 0.053685 -0.685195 -0.460423 -0.564375
-0.336316 -0.861329 0.053685 -0.876686 -0.478689 -0.047726
-0.336316 -0.852631 0.051953 -0.657821 -0.661540 -0.360050
-0.288947 -0.861507 0.053685 -0.874762 -0.354109 0.330754
-0.288947 -0.852631 0.051982 -0.919452 -0.274912 0.281124
-0.279474 -0.852631 0.051432 -0.857243 -0.404381 0.318763
-0.274121 -0.852631 0.053685 -0.843706 -0.291662 0.450659
-0.260526 -0.852631 0.052155 -0.947179 -0.029559 -0.319340
-0.264667 -0.852631 0.053685 -0.895796 -0.219385 -0.386548
-0.260526 -0.860198 0.053685 -0.785782 -0.446494 -0.428007
-0.251053 -0.852631 0.050565 -0.972755 0.024093 0.230580
-0.241765 -0.852631 0.053685 -0.922003 0.116013 0.369394
-0.241579 -0.853935 0.053685 -0.909158 0.408429 0.081347
-0.232105 -0.852631 0.053233 -0.854722 0.339004 0.393099
-0.240048 -0.852631 0.053685 -0.935402 0.350479 -0.046776
-0.231677 -0.852631 0.053685 -0.726206 0.313866 0.611647
0.014210 -0.854720 0.053685 -0.337513 0.748448 -0.570886
0.015525 -0.852631 0.053685 -0.520973 0.714588 -0.466852
0.412105 -0.852631 0.048459 -0.564995 -0.629075 0.533896
-0.412105 -0.839889 0.053685 -0.375804 -0.850297 -0.368464
-0.412105 -0.831579 0.047433 -0.149612 -0.861252 -0.485656
-0.364737 -0.846528 0.053685 -0.692723 -0.669952 0.267019
-0.364737 -0.831579 0.048713 -0.536776 -0.840274 0.076229
-0.355263 -0.846208 0.053685 -0.736635 -0.650601 -0.184627
-0.355263 -0.831579 0.047956 -0.505871 -0.791939 -0.341945
-0.288947 -0.831579 0.049566 -0.931319 -0.331608 0.150603
-0.279474 -0.831579 0.047385 -0.624170 -0.525661 0.578007
-0.274825 -0.831579 0.053685 -0.762042 -0.087423 0.641599
-0.260526 -0.831579 0.053471 -0.911844 0.068960 -0.404704
-0.261051 -0.831579 0.053685 -0.913706 -0.021894 -0.405785
-0.251053 -0.831579 0.051876 -0.971621 -0.191247 0.139202
-0.247978 -0.831579 0.053685 -0.904362 0.036048 0.425241
-0.232105 -0.849845 0.053685 -0.876794 0.230447 0.422050
0.014210 -0.831579 0.047420 0.281126 -0.302663 -0.910694
0.021047 -0.831579 0.053685 0.338874 0.192845 -0.920855
-0.272028 -0.810526 0.053685 -0.457608 -0.684805 0.567130
-0.260526 -0.810526 0.051548 -0.243151 -0.943610 -0.224670
-0.263667 -0.810526 0.053685 -0.365913 -0.916650 -0.160811
-0.242653 -0.810526 0.053685 -0.784164 -0.551932 0.283652
0.013909 -0.810526 0.053685 0.070790 0.194014 -0.978441
0.014210 -0.814778 0.053685 -0.093037 0.241131 -0.966023
-0.270000 -0.808828 0.053685 -0.192837 -0.975503 0.105869
-0.241579 -0.809882 0.053685 -0.519499 -0.829855 0.203620
-0.232105 -0.804813 0.053685 -0.366454 -0.798115 0.478251
-0.222632 -0.790301 0.053685 -0.651583 -0.702790 0.285527
-0.222632 -0.789473 0.051310 -0.105609 -0.982780 0.151628
-0.219603 -0.789473 0.053685 -0.444979 -0.893479 0.060735
0.004737 -0.789473 0.052727 0.054332 -0.820705 -0.568762
0.004952 -0.789473 0.053685 -0.099456 -0.717156 -0.689780
0.317368 -0.789473 0.050011 0.210296 0.974402 0.079472
0.317368 -0.793542 0.053685 0.215079 0.959471 0.182090
0.312279 -0.789473 0.053685 0.329628 0.808602 0.487348
0.326842 -0.789473 0.050505 0.148417 0.988664 -0.022720
0.326842 -0.791561 0.053685 0.283820 0.956823 -0.062732
0.336316 -0.789473 0.051537 0.123440 0.915404 -0.383142
0.336316 -0.790838 0.053685 0.335187 0.801686 -0.494923
0.336884 -0.789473 0.053685 0.225669 0.778993 -0.585015
-0.412105 -0.770112 0.053685 -0.595902 0.797071 -0.097877
-0.402632 -0.768720 0.053685 -0.450865 0.848012 -0.278560
-0.402364 -0.768421 0.053685 -0.510874 0.191351 -0.838089
-0.213158 -0.788988 0.053685 -0.194481 -0.978284 0.071678
-0.203684 -0.786074 0.053685 -0.208534 -0.974578 0.081921
-0.194211 -0.785901 0.053685 -0.247923 -0.968771 0.004040
-0.184737 -0.785976 0.053685 -0.235599 -0.970121 0.057952
-0.175263 -0.781531 0.053685 -0.301938 -0.944814 0.127124
-0.165790 -0.783341 0.053685 -0.369997 -0.929013 0.006149
-0.156316 -0.779566 0.053685 -0.406847 -0.898228 0.166319
-0.146842 -0.775172 0.053685 -0.492916 -0.861225 0.123794
-0.137369 -0.774879 0.053685 -0.401426 -0.909911 0.104496
-0.137369 -0.768421 0.048020 -0.272106 -0.951484 0.143656
-0.129152 -0.768421 0.053685 -0.484743 -0.845219 0.225011
-0.118421 -0.768421 0.052626 -0.246262 -0.954005 0.170968
-0.122963 -0.768421 0.053685 -0.374938 -0.924336 -0.070883
-0.118421 -0.769926 0.053685 -0.708442 -0.695049 0.122539
-0.117236 -0.768421 0.053685 -0.503143 -0.781236 0.369482
-0.010505 -0.768421 0.053685 -0.237512 -0.919683 -0.312684
-0.004737 -0.775441 0.053685 -0.362844 -0.805774 -0.468051
0.004737 -0.789100 0.053685 -0.078484 -0.833511 -0.546900
0.279473 -0.768421 0.050239 -0.416931 -0.895620 0.155027
0.288947 -0.768421 0.051853 -0.554402 -0.820641 0.138518
0.298421 -0.768421 0.053392 -0.482397 -0.874235 0.054836
0.307895 -0.768421 0.053500 -0.405021 -0.887096 0.221402
0.308196 -0.768421 0.053685 -0.441732 -0.744458 0.500654
0.345789 -0.782052 0.053685 0.083137 0.965862 -0.245356
0.355263 -0.778457 0.053685 0.060248 0.992920 -0.102373
0.364737 -0.777654 0.053685 0.073991 0.996009 -0.049918
0.374210 -0.776315 0.053685 0.032646 0.998122 0.051839
0.383684 -0.779742 0.053685 -0.005303 0.998679 -0.051101
0.393158 -0.775246 0.053685 -0.070674 0.990050 -0.121678
0.402631 -0.774150 0.053685 -0.074886 0.995304 0.061338
0.412105 -0.777391 0.053685 -0.032906 0.986939 0.157700
-0.412105 -0.768081 0.053685 -0.205433 -0.978621 -0.009905
-0.402632 -0.767359 0.053685 -0.718576 -0.678945 -0.150608
-0.402632 -0.747368 0.051007 -0.517390 -0.848654 -0.109975
-0.127895 -0.767873 0.053685 -0.224085 -0.969801 0.096290
-0.108947 -0.760949 0.053685 -0.417765 -0.826556 0.377196
-0.099474 -0.752021 0.053685 -0.415950 -0.840630 0.346881
-0.094093 -0.747368 0.053685 -0.273678 -0.937194 0.216257
-0.031964 -0.747368 0.053685 -0.233676 -0.713390 -0.660658
-0.023684 -0.765037 0.053685 -0.211314 -0.929045 -0.303681
-0.014211 -0.766164 0.053685 -0.261600 -0.957338 -0.122759
0.317368 -0.762386 0.053685 -0.342578 -0.897433 0.277947
0.326842 -0.755682 0.053685 -0.456397 -0.799808 0.389884
0.326842 -0.747368 0.050449 -0.407521 -0.856227 0.317494
0.332046 -0.747368 0.053685 -0.415549 -0.800670 0.431563
-0.090000 -0.746004 0.053685 -0.117416 -0.983886 0.134841
-0.080526 -0.743830 0.053685 -0.170447 -0.980646 0.096341
-0.071053 -0.741707 0.053685 -0.153486 -0.958190 0.241485
-0.061579 -0.730650 0.053685 -0.327334 -0.927754 0.179234
-0.052105 -0.737107 0.053685 -0.212473 -0.914770 -0.343587
-0.042632 -0.745604 0.053685 -0.268873 -0.940159 -0.209303
-0.033158 -0.745205 0.053685 -0.264397 -0.934229 -0.239397
0.336316 -0.743024 0.053685 -0.371172 -0.845521 0.383830
0.344352 -0.726315 0.053685 -0.333492 -0.795743 0.505545
0.345789 -0.725015 0.053685 -0.187952 -0.950343 0.248037
0.355263 -0.724175 0.053685 -0.339997 -0.939754 0.035557
0.364737 -0.724406 0.053685 -0.340961 -0.939866 0.019927
0.374210 -0.722606 0.053685 -0.364055 -0.928007 0.079167
0.383684 -0.720703 0.053685 -0.384142 -0.909614 0.158233
0.393158 -0.714138 0.053685 -0.488850 -0.834945 0.252769
0.393158 -0.705263 0.049942 -0.702177 -0.659609 0.268074
0.402631 -0.708890 0.053685 -0.523427 -0.851826 -0.020388
0.402631 -0.705263 0.052104 -0.698625 -0.702884 -0.133708
0.412105 -0.714467 0.053685 -0.465183 -0.851063 -0.243511
0.412105 -0.705263 0.049480 -0.692163 -0.655253 -0.302578
0.402631 -0.684210 0.049139 -0.856913 -0.493303 0.149506
0.412105 -0.684210 0.047535 -0.881888 -0.277783 -0.380934
-0.061579 -0.677482 0.053685 -0.360411 0.840162 -0.405255
-0.064518 -0.663157 0.053685 -0.004835 0.071129 0.997455
-0.058751 -0.663157 0.053685 -0.079204 0.270850 -0.959358
0.383684 -0.667484 0.053685 -0.697665 -0.369027 0.614071
0.382885 -0.663157 0.053685 -0.117284 -0.617736 0.777590
0.385205 -0.663157 0.053685 -0.140732 -0.735334 -0.662932
-0.063798 -0.642105 0.053685 -0.372755 0.286292 0.882661
-0.058047 -0.642105 0.053685 -0.631668 0.436173 -0.640897
0.383684 -0.661774 0.053685 -0.013928 -0.981670 0.190080
-0.071053 -0.621052 0.051157 -0.507395 -0.174484 0.843864
-0.068956 -0.621052 0.053685 -0.601184 -0.087508 0.794305
-0.052105 -0.621052 0.050925 -0.138986 -0.103835 -0.984836
-0.052853 -0.621052 0.053685 -0.535529 -0.188921 -0.823115
0.383684 -0.623184 0.053685 -0.403648 0.873161 0.273236
0.382358 -0.621052 0.053685 -0.191579 0.145296 0.970663
0.386057 -0.621052 0.053685 -0.243419 0.186740 -0.951775
0.402631 -0.621052 0.048262 -0.773650 0.577824 0.259971
0.409722 -0.621052 0.053685 -0.419735 0.525853 0.739798
0.412105 -0.622469 0.053685 -0.448289 0.724059 -0.524190
0.412732 -0.621052 0.053685 -0.195735 -0.011853 -0.980585
-0.061579 -0.610744 0.053685 -0.518553 -0.827149 0.216628
-0.061579 -0.599999 0.047437 -0.981701 0.120391 -0.147545
0.383684 -0.616025 0.053685 -0.195434 -0.962747 0.186881
0.393158 -0.599999 0.048172 -0.904850 -0.285551 0.315763
0.402631 -0.599999 0.048800 -0.952272 0.296402 -0.072966
0.412105 -0.618070 0.053685 -0.194967 -0.896625 -0.397556
-0.412105 -0.578947 0.047602 -0.254215 0.739965 0.622757
-0.412105 -0.579869 0.053685 -0.387204 0.659568 0.644238
-0.412569 -0.578947 0.053685 -0.066838 0.083438 0.994269
-0.410971 -0.578947 0.053685 -0.150604 0.285053 -0.946606
-0.080526 -0.578947 0.049767 -0.790984 0.344356 0.505730
-0.071053 -0.578947 0.052757 -0.649071 0.617668 0.444065
-0.069700 -0.578947 0.053685 -0.416719 0.741494 0.525863
-0.061579 -0.589501 0.053685 -0.570705 0.820877 0.021388
-0.055232 -0.578947 0.053685 -0.346763 0.593651 -0.726178
0.383684 -0.584983 0.053685 -0.520319 0.728156 0.446158
0.381425 -0.578947 0.053685 -0.179488 0.082301 0.980311
0.393158 -0.578947 0.051282 -0.498657 0.857870 -0.124097
0.390937 -0.578947 0.053685 -0.285320 0.637392 -0.715769
0.398144 -0.578947 0.053685 -0.735533 0.507734 0.448550
0.402631 -0.582695 0.053685 -0.226509 0.973821 -0.019146
0.412105 -0.581189 0.053685 -0.516640 0.397501 -0.758338
0.412818 -0.578947 0.053685 -0.248424 0.185036 -0.950814
-0.412585 -0.557894 0.053685 -0.111230 0.043955 0.992822
-0.409194 -0.557894 0.053685 -0.341195 0.020646 -0.939766
-0.222632 -0.557894 0.048916 -0.672259 0.676202 0.301362
-0.080526 -0.557894 0.052023 -0.446077 0.418532 0.791104
-0.079381 -0.557894 0.053685 -0.550356 0.411821 0.726300
-0.071053 -0.575933 0.053685 -0.669625 0.564374 0.482788
-0.052105 -0.564679 0.053685 -0.376710 0.433322 -0.818732
-0.050419 -0.557894 0.053685 -0.407560 -0.029559 -0.912700
-0.033158 -0.557894 0.048137 -0.509527 -0.234934 -0.827761
0.383684 -0.558660 0.053685 -0.737031 -0.196027 0.646807
0.383684 -0.557894 0.053387 -0.717572 -0.171471 0.675047
0.393158 -0.557894 0.050664 -0.977652 0.210016 -0.009450
0.402631 -0.558239 0.053685 -0.679062 -0.027381 0.733570
0.402631 -0.557894 0.053663 -0.821799 0.020452 0.569411
0.402674 -0.557894 0.053685 -0.177418 0.426790 0.886777
0.414296 -0.557894 0.053685 -0.164539 -0.021845 -0.986129
-0.412105 -0.554209 0.053685 -0.056920 -0.348424 0.935607
-0.402632 -0.544844 0.053685 -0.700222 0.282210 0.655779
-0.404780 -0.536842 0.053685 -0.143529 0.192078 0.970827
-0.393158 -0.546188 0.053685 -0.376140 0.874283 -0.306836
-0.383684 -0.536842 0.048380 -0.136443 0.951070 -0.277218
-0.386396 -0.536842 0.053685 -0.389843 0.782358 -0.485735
-0.374211 -0.536842 0.051740 -0.231482 0.972053 -0.039101
-0.279474 -0.536842 0.047501 -0.370808 0.823036 0.430247
-0.273965 -0.536842 0.053685 -0.472224 0.775083 0.419822
-0.270000 -0.542647 0.053685 -0.580728 0.785935 0.212277
-0.260526 -0.541569 0.053685 -0.524194 0.844393 -0.110550
-0.251053 -0.537703 0.053685 -0.577320 0.814954 -0.050521
-0.241579 -0.539636 0.053685 -0.463938 0.879664 -0.104655
-0.232105 -0.536842 0.051523 -0.602871 0.759134 -0.245483
-0.237954 -0.536842 0.053685 -0.514808 0.831875 -0.207261
-0.222632 -0.536842 0.050061 -0.394244 0.907766 -0.143290
-0.203684 -0.536842 0.049524 -0.535822 0.842600 0.054044
-0.080526 -0.551652 0.053685 -0.656588 0.198426 0.727680
-0.083089 -0.536842 0.053685 -0.572319 0.268290 0.774901
-0.052105 -0.536842 0.051581 -0.521325 -0.310021 -0.795052
-0.056815 -0.536842 0.053685 -0.769539 -0.394864 -0.501888
-0.052105 -0.546970 0.053685 -0.418233 -0.498327 -0.759442
0.374210 -0.536842 0.048689 -0.823762 -0.405916 0.395788
0.383684 -0.536842 0.052018 -0.818338 -0.450101 0.357395
0.391359 -0.536842 0.053685 -0.763200 -0.601158 0.236926
0.393158 -0.538697 0.053685 -0.984881 0.071227 0.157914
0.402631 -0.557315 0.053685 -0.669763 0.122403 0.732417
0.412105 -0.541140 0.053685 -0.542071 0.030671 -0.839773
0.412105 -0.536842 0.052693 -0.703743 -0.348849 -0.618911
0.406252 -0.536842 0.053685 -0.564275 -0.806441 -0.176770
-0.412105 -0.517138 0.053685 -0.174990 0.861504 0.476643
-0.414100 -0.515789 0.053685 -0.215385 0.954208 0.207598
-0.383684 -0.532977 0.053685 -0.529552 0.826705 -0.190087
-0.374211 -0.535302 0.053685 -0.516160 0.822881 -0.237583
-0.364737 -0.526149 0.053685 -0.611209 0.731258 -0.302794
-0.355263 -0.517019 0.053685 -0.446860 0.846538 -0.289290
-0.345789 -0.515789 0.049237 -0.446930 0.893413 -0.045466
-0.353564 -0.515789 0.053685 -0.727105 0.615546 -0.304010
-0.336316 -0.515789 0.052469 -0.423704 0.902815 0.073487
-0.317368 -0.515789 0.053544 -0.098786 0.993296 0.060043
-0.307895 -0.515789 0.050704 -0.162763 0.976739 0.139604
-0.305849 -0.515789 0.053685 -0.452621 0.866740 0.209513
-0.298421 -0.518426 0.053685 -0.449443 0.882771 0.136811
-0.288947 -0.521678 0.053685 -0.489026 0.845176 0.215712
-0.279474 -0.529238 0.053685 -0.500350 0.760938 0.413065
-0.232105 -0.533429 0.053685 -0.521007 0.841847 -0.140877
-0.222632 -0.531782 0.053685 -0.460745 0.873384 -0.157840
-0.213158 -0.526305 0.053685 -0.508784 0.856410 -0.087761
-0.203684 -0.527705 0.053685 -0.539449 0.839506 -0.064997
-0.194211 -0.523479 0.053685 -0.555125 0.805756 -0.206379
-0.184737 -0.516974 0.053685 -0.445233 0.883338 -0.146567
-0.175263 -0.516771 0.053685 -0.413404 0.862588 -0.291613
-0.174643 -0.515789 0.053685 -0.400507 0.704329 -0.586101
-0.090000 -0.515789 0.050895 -0.706226 0.327829 0.627513
-0.085289 -0.515789 0.053685 -0.629682 0.321610 0.707155
-0.052105 -0.519671 0.053685 -0.498291 0.169728 -0.850234
-0.051816 -0.515789 0.053685 -0.405039 0.075744 -0.911156
0.393158 -0.536153 0.053685 -0.487916 -0.865850 0.110641
0.402631 -0.535751 0.053685 -0.377878 -0.924680 -0.046640
-0.345789 -0.499696 0.053685 -0.928677 0.362889 -0.076622
-0.336316 -0.506232 0.053685 -0.937944 0.343357 -0.048652
-0.326842 -0.499232 0.053685 -0.886214 0.414799 0.206317
-0.317368 -0.515694 0.053685 -0.859073 0.510465 0.037672
-0.307895 -0.510952 0.053685 -0.913973 0.350668 0.204169
-0.165790 -0.496790 0.053685 -0.463799 0.758046 -0.458538
-0.156316 -0.494736 0.052977 -0.388333 0.914311 -0.115033
-0.159104 -0.494736 0.053685 -0.529993 0.837961 -0.130111
-0.146842 -0.494736 0.051717 -0.377129 0.791628 -0.480727
-0.099474 -0.494736 0.048463 -0.571795 0.366893 0.733785
-0.091878 -0.494736 0.053685 -0.604424 0.556158 0.570403
-0.090000 -0.498888 0.053685 -0.481597 0.566328 0.668832
-0.051105 -0.494736 0.053685 -0.292881 -0.201044 -0.934774
-0.345789 -0.473684 0.053385 -0.985744 -0.153153 -0.069667
-0.348138 -0.473684 0.053685 -0.985245 -0.024775 -0.169350
-0.345789 -0.478458 0.053685 -0.943524 -0.308778 -0.120076
-0.336316 -0.475708 0.053685 -0.987664 -0.154782 0.023721
-0.336316 -0.473684 0.053520 -0.938248 0.344775 0.028669
-0.330988 -0.473684 0.053685 -0.997976 0.057092 0.028006
-0.156316 -0.493826 0.053685 -0.456965 0.885775 -0.081153
-0.146842 -0.492048 0.053685 -0.498055 0.666635 -0.554562
-0.137369 -0.473684 0.053167 -0.473193 0.610561 -0.635062
-0.137819 -0.473684 0.053685 -0.613401 0.430409 -0.662183
-0.127895 -0.473684 0.047582 -0.652149 0.637750 -0.409850
-0.099474 -0.473684 0.052102 -0.617007 0.342898 0.708324
-0.097272 -0.473684 0.053685 -0.621708 0.354111 0.698631
-0.052105 -0.473684 0.049594 -0.427569 -0.271774 -0.862162
-0.055540 -0.473684 0.053685 -0.344552 -0.420274 -0.839436
-0.052105 -0.488575 0.053685 -0.314514 -0.371217 -0.873658
-0.345789 -0.463686 0.053685 -0.950345 0.311181 0.003107
-0.336316 -0.472895 0.053685 -0.923400 0.383148 0.023022
-0.137369 -0.467787 0.053685 -0.729361 0.163611 -0.664277
-0.127895 -0.452631 0.049807 -0.824827 -0.137799 -0.548335
-0.135120 -0.452631 0.053685 -0.797019 -0.265172 -0.542628
-0.118421 -0.452631 0.047582 -0.997731 -0.040410 0.053859
-0.108947 -0.452631 0.051288 -0.860346 -0.038955 0.508220
-0.102910 -0.452631 0.053685 -0.780179 0.181260 0.598720
-0.099474 -0.462546 0.053685 -0.547179 0.473347 0.690317
-0.052105 -0.452631 0.047572 -0.603170 -0.444335 -0.662384
-0.059717 -0.452631 0.053685 -0.430911 -0.366843 -0.824465
-0.345789 -0.431578 0.050864 -0.833588 -0.520826 -0.184039
-0.354280 -0.431578 0.053685 -0.814621 -0.474356 -0.333735
-0.345789 -0.450601 0.053685 -0.825349 -0.493736 -0.273906
-0.336316 -0.437061 0.053685 -0.863767 -0.452369 0.221967
-0.336316 -0.431578 0.052329 -0.835076 -0.508027 0.211086
-0.328433 -0.431578 0.053685 -0.884133 -0.438536 0.161231
-0.137369 -0.431578 0.049723 -0.794315 -0.297329 -0.529773
-0.142556 -0.431578 0.053685 -0.712631 -0.101413 -0.694171
-0.137369 -0.448700 0.053685 -0.630507 -0.496491 -0.596622
-0.099474 -0.446967 0.053685 -0.534874 -0.601888 0.592994
-0.099474 -0.431578 0.049059 -0.574882 -0.491697 0.654022
-0.095088 -0.431578 0.053685 -0.416379 -0.391371 0.820645
-0.061579 -0.431578 0.051560 -0.563643 -0.511924 -0.648259
-0.067547 -0.431578 0.053685 -0.570500 -0.680091 -0.460441
-0.061579 -0.441889 0.053685 -0.460014 -0.486297 -0.742901
-0.364737 -0.410526 0.051726 -0.947817 -0.167917 -0.271011
-0.373664 -0.410526 0.053685 -0.865978 -0.325269 -0.379846
-0.364737 -0.421244 0.053685 -0.766557 -0.592911 -0.246674
-0.355263 -0.430257 0.053685 -0.827253 -0.507058 -0.241958
-0.355263 -0.410526 0.050153 -0.929660 -0.207978 -0.304102
-0.345789 -0.410526 0.047925 -0.983409 -0.132752 -0.123625
-0.336316 -0.410526 0.048223 -0.983579 -0.073761 0.164715
-0.326842 -0.430110 0.053685 -0.879072 -0.413859 0.236542
-0.326842 -0.410526 0.050257 -0.871313 -0.375935 0.315415
-0.317368 -0.413529 0.053685 -0.918083 -0.373839 0.131791
-0.317368 -0.410526 0.053030 -0.822494 -0.568371 -0.021402
-0.307895 -0.417943 0.053685 -0.858649 -0.395038 0.326600
-0.307895 -0.410526 0.050882 -0.564002 -0.103557 0.819254
-0.306370 -0.410526 0.053685 -0.681755 -0.073186 0.727911
-0.137369 -0.410526 0.049143 -0.617765 -0.062191 -0.783900
-0.140362 -0.410526 0.053685 -0.521836 -0.159027 -0.838091
-0.090748 -0.410526 0.053685 -0.503845 -0.339176 0.794418
-0.080526 -0.410526 0.052950 -0.706824 -0.615469 -0.348710
-0.084604 -0.410526 0.053685 -0.732949 -0.657565 -0.174341
-0.080526 -0.412524 0.053685 -0.694222 -0.665849 -0.273316
-0.071053 -0.426459 0.053685 -0.626919 -0.671248 -0.395473
-0.071053 -0.410526 0.049065 -0.677864 -0.617030 -0.399718
-0.374211 -0.389473 0.053216 -0.976836 -0.178384 -0.118199
-0.380792 -0.389473 0.053685 -0.874723 -0.466635 -0.130811
-0.374211 -0.405869 0.053685 -0.794657 -0.186183 -0.577802
-0.364737 -0.389473 0.052371 -0.986539 -0.065618 -0.149780
-0.355263 -0.389473 0.051383 -0.973157 0.080151 -0.215736
-0.345789 -0.389473 0.049439 -0.980803 0.118493 -0.154870
-0.336316 -0.389473 0.050172 -0.850769 -0.525046 0.022786
-0.326842 -0.389473 0.049292 -0.682638 -0.726555 -0.078247
-0.317368 -0.389473 0.048675 -0.602769 -0.795799 -0.058077
-0.307895 -0.389473 0.048137 -0.314786 -0.880897 0.353456
-0.304417 -0.389473 0.053685 -0.631575 -0.637228 0.441649
-0.145671 -0.389473 0.053685 -0.642155 0.050388 -0.764917
-0.090000 -0.407588 0.053685 -0.649785 -0.638580 0.412305
-0.080526 -0.389473 0.049296 -0.943655 -0.181416 -0.276772
-0.412105 -0.369410 0.053685 -0.701825 -0.689971 0.177148
-0.412105 -0.368420 0.052872 -0.675253 -0.653079 0.342814
-0.410045 -0.368420 0.053685 -0.680547 -0.704689 0.200673
-0.393158 -0.368420 0.051373 -0.849092 -0.351018 -0.394752
-0.398976 -0.368420 0.053685 -0.712498 -0.570271 -0.408825
-0.393158 -0.372787 0.053685 -0.591573 -0.750436 -0.294767
-0.383684 -0.388112 0.053685 -0.530888 -0.496600 -0.686692
-0.383684 -0.368420 0.049228 -0.885103 -0.446166 0.132397
-0.374211 -0.368420 0.051322 -0.948087 -0.301160 0.102146
-0.364737 -0.368420 0.051260 -0.993894 -0.110275 0.003705
-0.355263 -0.368420 0.051326 -0.973122 -0.108722 -0.203011
-0.345789 -0.368420 0.049340 -0.911051 -0.267249 -0.313948
-0.298421 -0.383650 0.053685 -0.436425 -0.783206 0.442855
-0.288947 -0.372030 0.053685 -0.612735 -0.715390 0.335817
-0.288947 -0.368420 0.049973 -0.362879 -0.831901 0.419834
-0.284986 -0.368420 0.053685 -0.608116 -0.691095 0.390618
-0.137369 -0.368420 0.052618 -0.436483 0.865611 -0.245358
-0.139160 -0.368420 0.053685 -0.412621 0.856280 -0.310689
-0.127895 -0.368420 0.052060 -0.391759 0.913495 -0.109784
-0.118421 -0.368420 0.048378 -0.656867 0.724917 -0.207415
-0.108947 -0.368420 0.048842 -0.755856 0.648659 0.089006
-0.099474 -0.368420 0.051291 -0.687677 0.659129 0.304385
-0.090000 -0.368420 0.052171 -0.574336 0.818579 -0.008196
-0.080526 -0.368420 0.051395 -0.722352 0.626181 -0.293436
-0.071053 -0.368420 0.048071 -0.802063 0.468815 -0.370010
-0.412105 -0.347368 0.049191 -0.969780 0.223122 0.098707
-0.402632 -0.357426 0.053685 -0.962208 -0.271677 0.018658
-0.402632 -0.347368 0.052229 -0.997196 -0.072632 0.018008
-0.393158 -0.347368 0.051090 -0.950361 -0.162276 -0.265483
-0.383684 -0.347368 0.048813 -0.993156 -0.007775 -0.116536
-0.374211 -0.347368 0.049828 -0.965668 0.155973 0.207746
-0.364737 -0.347368 0.051250 -0.996481 0.067470 0.049735
-0.355263 -0.347368 0.050832 -0.893190 -0.014938 -0.449432
-0.345789 -0.347368 0.047370 -0.944932 -0.106005 -0.309624
-0.280219 -0.347368 0.053685 -0.676401 -0.173399 0.715831
-0.137369 -0.367542 0.053685 -0.261600 0.959549 -0.104075
-0.127895 -0.367096 0.053685 -0.237771 0.958526 -0.157141
-0.118421 -0.358525 0.053685 -0.301356 0.908756 -0.288699
-0.108947 -0.354466 0.053685 -0.432789 0.896491 -0.094859
-0.099474 -0.359246 0.053685 -0.762259 0.598795 0.245776
-0.090000 -0.365312 0.053685 -0.656158 0.754056 -0.029266
-0.080526 -0.362783 0.053685 -0.664034 0.678673 -0.313786
-0.071053 -0.352866 0.053685 -0.467714 0.841525 -0.270331
-0.061579 -0.347368 0.053265 -0.296340 0.625630 -0.721644
-0.062466 -0.347368 0.053685 -0.592415 0.748166 -0.298817
-0.412105 -0.326315 0.052822 -0.872288 -0.220127 -0.436644
-0.402632 -0.326315 0.053416 -0.983877 -0.091908 -0.153423
-0.393158 -0.326315 0.050651 -0.946262 -0.041202 -0.320766
-0.383684 -0.326315 0.049317 -0.989019 -0.043966 0.141095
-0.374211 -0.326315 0.052191 -0.952431 -0.157630 0.260821
-0.364737 -0.326315 0.052675 -0.996802 -0.028729 -0.074572
-0.355263 -0.326315 0.051720 -0.896165 -0.036819 -0.442190
-0.345789 -0.326315 0.048193 -0.938629 0.063754 -0.338986
-0.282638 -0.326315 0.053685 -0.705502 0.299794 0.642177
-0.061579 -0.346297 0.053685 -0.337725 0.369923 -0.865505
-0.058261 -0.326315 0.053685 -0.218328 0.656408 -0.722123
-0.402632 -0.305262 0.050574 -0.907070 0.071426 0.414877
-0.393158 -0.305262 0.049269 -0.753013 0.642917 -0.140104
-0.383684 -0.305262 0.048571 -0.936771 0.346627 0.048058
-0.374211 -0.305262 0.049591 -0.961892 -0.161520 0.220626
-0.364737 -0.305262 0.051212 -0.992821 -0.119057 0.011519
-0.355263 -0.305262 0.050230 -0.921814 -0.022712 -0.386966
-0.345789 -0.305262 0.047439 -0.960341 -0.051694 -0.273993
-0.288947 -0.308714 0.053685 -0.673141 0.405919 0.618151
-0.289995 -0.305262 0.053685 -0.550861 0.339501 0.762424
-0.099474 -0.305262 0.053231 -0.000434 0.887510 0.460789
-0.099806 -0.305262 0.053685 -0.390214 0.747899 -0.537011
-0.099474 -0.307000 0.053685 -0.642362 0.682566 0.348532
-0.099337 -0.305262 0.053685 -0.243609 0.474486 0.845883
-0.052105 -0.308214 0.053685 -0.044520 0.719755 -0.692800
-0.052105 -0.305262 0.049316 0.163009 0.648276 -0.743751
-0.050075 -0.305262 0.053685 -0.169670 0.785757 -0.594810
-0.402632 -0.289293 0.053685 -0.808449 0.437643 0.393546
-0.403677 -0.284210 0.053685 -0.529933 0.429388 0.731298
-0.393158 -0.295480 0.053685 -0.829416 0.536002 -0.157389
-0.383684 -0.284210 0.052584 -0.624869 0.676913 -0.389007
-0.386442 -0.284210 0.053685 -0.683949 0.646018 -0.338932
-0.374211 -0.284210 0.048425 -0.705275 0.681670 -0.194712
-0.364737 -0.284210 0.051578 -0.888555 0.424287 0.174503
-0.355263 -0.284210 0.051051 -0.903822 0.300785 -0.304358
-0.345789 -0.284210 0.047989 -0.934503 0.218037 -0.281361
-0.295086 -0.284210 0.053685 -0.713413 0.490811 0.500146
-0.099474 -0.304875 0.053685 -0.340768 0.882377 0.324481
-0.043496 -0.284210 0.053685 -0.149784 0.519625 -0.841162
-0.412105 -0.275376 0.053685 -0.481369 0.851698 0.207110
-0.383684 -0.281902 0.053685 -0.667757 0.702661 -0.245701
-0.374211 -0.272071 0.053685 -0.725053 0.684281 -0.077826
-0.364737 -0.275904 0.053685 -0.826514 0.557303 -0.079290
-0.355263 -0.266580 0.053685 -0.762001 0.558582 -0.327629
-0.345789 -0.263157 0.050953 -0.853007 0.387929 -0.349128
-0.353692 -0.263157 0.053685 -0.865043 0.262337 -0.427645
-0.336316 -0.263157 0.049168 -0.840954 0.505452 -0.193169
-0.326842 -0.263157 0.048615 -0.729360 0.649131 -0.216019
-0.298421 -0.277133 0.053685 -0.604039 0.494080 0.625317
-0.302602 -0.263157 0.053685 -0.414105 0.474746 0.776617
-0.042632 -0.280825 0.053685 -0.132164 0.695063 -0.706696
-0.033158 -0.275395 0.053685 -0.001192 0.622250 -0.782817
-0.030684 -0.263157 0.053685 0.112335 0.289596 -0.950534
-0.345789 -0.242104 0.051883 -0.959231 0.106360 -0.261848
-0.353228 -0.242104 0.053685 -0.927770 0.010918 -0.372992
-0.336316 -0.242104 0.051246 -0.960868 0.252865 -0.113100
-0.326842 -0.242104 0.050370 -0.895582 0.338176 -0.289083
-0.304235 -0.242104 0.053685 -0.569127 0.263103 0.779019
-0.028831 -0.242104 0.053685 0.149839 0.139267 -0.978853
-0.345789 -0.221052 0.052826 -0.962222 0.271877 -0.014555
-0.353265 -0.221052 0.053685 -0.903729 0.400080 -0.152349
-0.339292 -0.221052 0.053685 -0.951535 0.245092 0.185774
-0.336316 -0.223876 0.053685 -0.935522 0.351380 0.036468
-0.326842 -0.223066 0.053685 -0.840824 0.541255 0.007595
-0.317368 -0.223608 0.053685 -0.922448 0.385658 -0.018884
-0.307895 -0.221488 0.053685 -0.661032 0.541091 0.519863
-0.127895 -0.221052 0.047557 0.834185 -0.333920 -0.438900
-0.118421 -0.221052 0.049828 0.945612 -0.322933 -0.039152
-0.029047 -0.221052 0.053685 0.112702 -0.286943 -0.951295
0.071052 -0.221052 0.047814 -0.440160 -0.679526 0.586945
0.080526 -0.221052 0.052324 -0.664886 -0.708445 0.236710
0.090000 -0.221052 0.053380 -0.590716 -0.708522 -0.386072
-0.345789 -0.215093 0.053685 -0.921495 0.386310 -0.040153
-0.127895 -0.199999 0.050419 0.842917 -0.130588 -0.521955
-0.118421 -0.199999 0.051427 0.861671 -0.490302 0.130869
-0.042977 -0.199999 0.053685 -0.055453 -0.000426 -0.998461
-0.042632 -0.200833 0.053685 0.102443 -0.640308 -0.761256
-0.041709 -0.199999 0.053685 0.307551 0.360945 0.880415
-0.031562 -0.199999 0.053685 0.097050 -0.107409 -0.989467
-0.415235 -0.178946 0.053685 -0.173634 0.348216 -0.921193
-0.412105 -0.188672 0.053685 -0.873307 -0.217784 0.435781
-0.410039 -0.178946 0.053685 -0.156519 0.332014 0.930198
-0.127895 -0.178946 0.051113 0.801327 -0.337949 -0.493626
-0.118421 -0.178946 0.052824 0.954199 -0.266743 0.135471
-0.042632 -0.198294 0.053685 0.074767 0.820800 -0.566301
-0.028229 -0.178946 0.053685 0.182436 -0.031912 -0.982700
-0.412105 -0.173171 0.053685 -0.101543 0.961820 0.254147
-0.146842 -0.157894 0.050064 0.679731 -0.662803 -0.314098
-0.137369 -0.157894 0.050660 0.727256 -0.660347 -0.187190
-0.130509 -0.157894 0.053685 0.609336 -0.599213 -0.519282
-0.127895 -0.165822 0.053685 0.709831 -0.550289 -0.439685
-0.118421 -0.173531 0.053685 0.796345 -0.482853 0.364263
-0.108947 -0.157894 0.047410 0.581689 -0.425023 0.693537
-0.114679 -0.157894 0.053685 0.506815 -0.466431 0.724970
-0.099474 -0.157894 0.048461 0.740288 -0.468201 0.482453
-0.036130 -0.157894 0.053685 0.367663 -0.269365 -0.890094
-0.033158 -0.163095 0.053685 0.165795 -0.433561 -0.885741
-0.165790 -0.136841 0.052108 0.619219 -0.717117 -0.319860
-0.156316 -0.136841 0.051920 0.575503 -0.783457 -0.234504
-0.154067 -0.136841 0.053685 0.545394 -0.612872 -0.571781
-0.146842 -0.148969 0.053685 0.567698 -0.779273 -0.265427
-0.137369 -0.150000 0.053685 0.580511 -0.790792 -0.194049
-0.108947 -0.144010 0.053685 0.533498 -0.761050 0.369029
-0.099474 -0.148674 0.053685 0.297074 -0.824358 0.481852
-0.095178 -0.136841 0.053685 0.271889 -0.602520 0.750364
-0.044205 -0.136841 0.053685 0.325660 -0.099989 -0.940185
-0.042632 -0.140110 0.053685 0.322716 -0.567007 -0.757864
-0.175263 -0.115788 0.052948 0.524886 -0.643983 -0.556580
-0.173740 -0.115788 0.053685 0.582790 -0.707712 -0.399373
-0.165790 -0.131769 0.053685 0.721228 -0.632234 -0.283036
-0.156316 -0.131599 0.053685 0.711415 -0.597423 -0.370100
-0.090000 -0.116080 0.053685 0.471603 -0.200026 0.858825
-0.089945 -0.115788 0.053685 0.377457 -0.094019 0.921242
-0.042632 -0.128763 0.053685 0.460652 0.558421 -0.689903
-0.042632 -0.115788 0.051583 0.766683 0.069098 -0.638297
-0.033158 -0.115788 0.051589 0.523274 -0.033007 -0.851525
-0.033158 -0.122267 0.053685 0.432365 0.340815 -0.834809
-0.032425 -0.115788 0.053685 0.166277 0.012491 -0.986000
-0.213158 -0.094736 0.048529 0.686147 -0.702710 -0.188151
-0.203684 -0.094736 0.049607 0.741827 -0.658412 -0.127229
-0.194211 -0.094736 0.050844 0.732338 -0.653500 -0.191364
-0.184737 -0.094736 0.053199 0.611265 -0.672359 -0.417479
-0.184142 -0.094736 0.053685 0.527748 -0.587580 -0.613377
-0.175263 -0.114377 0.053685 0.472575 -0.732664 -0.489772
-0.089024 -0.094736 0.053685 0.348457 0.342512 0.872504
-0.046664 -0.094736 0.053685 0.308928 -0.260851 -0.914615
-0.042632 -0.108233 0.053685 0.544410 -0.715433 -0.437918
-0.033158 -0.105959 0.053685 0.188385 -0.285222 -0.939766
-0.232105 -0.073683 0.047893 0.589473 -0.750852 -0.297898
-0.222632 -0.073683 0.052724 0.657068 -0.648586 -0.384184
-0.218910 -0.073683 0.053685 0.655984 -0.711310 -0.252435
-0.213158 -0.078323 0.053685 0.692032 -0.711312 -0.122992
-0.203684 -0.078771 0.053685 0.777380 -0.624708 -0.073622
-0.194211 -0.082280 0.053685 0.717057 -0.621101 -0.316326
-0.184737 -0.093324 0.053685 0.637478 -0.610769 -0.469663
-0.090000 -0.073683 0.047511 0.388170 -0.011851 0.921512
-0.090000 -0.091157 0.053685 0.478963 0.503214 0.719284
-0.094036 -0.073683 0.053685 0.530695 0.234273 0.814542
-0.045284 -0.073683 0.053685 0.191416 0.685717 -0.702248
-0.270000 -0.052630 0.047829 0.397903 -0.833179 -0.384039
-0.260526 -0.052630 0.049317 0.456587 -0.861409 -0.222493
-0.251053 -0.052630 0.053683 0.599167 -0.771070 -0.215522
-0.251042 -0.052630 0.053685 0.758338 -0.643066 -0.106723
-0.241579 -0.055643 0.053685 0.656784 -0.750026 -0.078075
-0.232105 -0.057076 0.053685 0.737873 -0.629274 -0.244046
-0.222632 -0.070420 0.053685 0.670045 -0.667332 -0.325127
-0.090000 -0.052630 0.048631 0.590341 0.054137 0.805336
-0.096723 -0.052630 0.053685 0.680661 -0.001369 0.732597
-0.042632 -0.070380 0.053685 0.185425 0.910390 -0.369875
-0.033158 -0.065022 0.053685 0.172891 0.836149 -0.520541
-0.026819 -0.052630 0.053685 0.110992 0.921138 -0.373075
-0.279474 -0.031578 0.048127 0.399081 -0.133467 -0.907150
-0.275235 -0.031578 0.053685 0.697343 -0.214845 -0.683779
-0.270000 -0.042451 0.053685 0.699180 -0.650273 -0.297140
-0.260526 -0.044092 0.053685 0.799026 -0.577461 -0.167623
-0.251053 -0.052625 0.053685 0.819054 -0.550411 -0.161858
-0.090000 -0.031578 0.049124 0.640023 0.241434 0.729438
-0.095482 -0.031578 0.053685 0.574913 0.618958 0.535132
-0.023684 -0.050696 0.053685 0.041373 0.876894 -0.478899
-0.014211 -0.031578 0.053285 -0.255945 0.747266 -0.613259
-0.014396 -0.031578 0.053685 -0.049411 0.653450 -0.755356
-0.270377 -0.010525 0.053685 0.791895 0.151758 -0.591500
-0.108947 -0.010525 0.051233 0.567787 0.669919 0.478358
-0.108947 -0.019460 0.053685 0.631626 0.661560 0.404213
-0.113097 -0.010525 0.053685 0.560213 0.688430 0.460680
-0.099474 -0.027070 0.053685 0.522528 0.776015 0.353221
-0.014211 -0.030949 0.053685 -0.233381 0.719680 -0.653907
-0.004737 -0.010525 0.053331 -0.531752 0.796494 -0.287813
-0.005201 -0.010525 0.053685 -0.245515 0.836536 -0.489827
0.004737 -0.010525 0.053604 -0.610280 0.764424 -0.207880
-0.271146 0.010528 0.053685 0.798576 -0.237856 -0.552902
-0.137369 0.010528 0.052847 0.761875 0.577723 0.292886
-0.137369 0.007207 0.053685 0.732397 0.600010 0.321842
-0.139380 0.010528 0.053685 0.683257 0.575713 0.449126
-0.127895 0.010528 0.051888 0.767359 0.617706 0.172044
-0.127895 0.001900 0.053685 0.704009 0.685287 0.186422
-0.118421 0.010528 0.049713 0.712041 0.586500 0.386024
-0.118421 -0.004312 0.053685 0.634182 0.724164 0.270922
-0.004737 -0.010100 0.053685 -0.220445 0.967039 -0.127434
0.004737 -0.010354 0.053685 -0.414991 0.841169 -0.346723
0.014210 -0.000125 0.053685 -0.386986 0.842710 -0.374276
0.023684 0.009231 0.053685 -0.396541 0.866624 -0.302849
0.033158 0.010528 0.050756 -0.520292 0.780388 -0.346831
