ply
format ascii 1.0
element vertex 832
property float x
property float y
property float z
property float nx
property float ny
property float nz
end_header
-0.156316 0.617348 -0.009473 -0.692952 -0.430692 -0.578206
-0.155874 0.621055 -0.009473 -0.250092 -0.569862 -0.782759
-0.137369 0.604301 -0.009473 0.165181 -0.971843 0.168037
-0.127895 0.604356 -0.009473 -0.014667 -0.992818 -0.118732
-0.108947 0.608946 -0.009473 0.256844 -0.925182 0.279409
-0.099474 0.615576 -0.009473 0.193159 -0.965825 0.172831
-0.090000 0.616570 -0.009473 0.135707 -0.888372 0.438610
-0.087855 0.621055 -0.009473 0.196865 -0.502317 0.841975
0.127895 0.621055 -0.013309 0.708860 0.473787 -0.522537
0.146842 0.621055 -0.013077 0.667637 -0.401943 -0.626660
0.154930 0.621055 -0.009473 0.503772 -0.307361 -0.807306
0.156316 0.612293 -0.009473 0.161105 -0.590467 -0.790819
0.165789 0.600279 -0.009473 0.135061 -0.700107 -0.701148
0.203684 0.621055 -0.011124 -0.303171 0.838491 0.452791
0.206132 0.621055 -0.009473 -0.186486 0.875233 0.446307
0.213158 0.614315 -0.009473 -0.292852 0.950081 0.107626
0.222631 0.620911 -0.009473 -0.175152 0.979164 -0.102757
0.232105 0.607305 -0.009473 -0.570834 0.819913 0.043494
0.241579 0.615330 -0.009473 -0.347698 0.846005 -0.404204
0.246381 0.621055 -0.009473 -0.265084 0.880269 -0.393518
0.260526 0.611214 -0.009473 -0.557210 0.828626 -0.053816
0.254721 0.621055 -0.009473 -0.194093 0.831034 0.521258
0.270000 0.616140 -0.009473 -0.620404 0.727990 -0.291768
0.279473 0.621055 -0.011150 -0.486526 0.867106 -0.106867
0.275159 0.621055 -0.009473 -0.526469 0.783511 -0.330063
0.288947 0.618141 -0.009473 -0.753847 0.633061 0.175920
0.285514 0.621055 -0.009473 -0.546787 0.790745 0.275220
0.298421 0.616515 -0.009473 -0.628013 0.762842 -0.153855
0.307895 0.621055 -0.010690 -0.666758 0.709738 -0.227389
0.303160 0.621055 -0.009473 -0.693403 0.659949 -0.289238
0.317368 0.621055 -0.012525 -0.622594 0.767086 0.154778
0.320120 0.621055 -0.009473 -0.439814 0.278835 0.853706
-0.165790 0.642107 -0.011955 -0.497458 0.417402 -0.760468
-0.167909 0.642107 -0.009473 -0.802627 0.369293 -0.468416
-0.165790 0.629826 -0.009473 -0.818718 -0.390938 -0.420558
-0.156316 0.622237 -0.009473 -0.277660 -0.847398 -0.452572
-0.137369 0.642107 -0.015204 -0.993673 0.033706 -0.107134
-0.080526 0.634677 -0.009473 0.238892 -0.771807 0.589274
-0.071053 0.642107 -0.013389 0.538541 -0.647427 0.539270
-0.075674 0.642107 -0.009473 0.492696 -0.421214 0.761465
0.146842 0.642107 -0.011159 0.757496 -0.360602 -0.544212
0.153513 0.642107 -0.009473 0.802420 -0.261183 -0.536568
0.175263 0.642107 -0.011630 0.582739 0.462243 0.668391
0.175263 0.636918 -0.009473 -0.081784 0.894972 0.438562
0.171612 0.642107 -0.009473 0.402377 0.081665 0.911824
0.184737 0.629209 -0.009473 -0.188797 0.978633 0.081439
0.194210 0.628608 -0.009473 -0.162323 0.982621 0.090039
0.203684 0.624021 -0.009473 -0.442449 0.828212 0.343954
0.251052 0.624570 -0.009473 -0.173310 0.983957 0.042338
0.279473 0.623911 -0.009473 -0.433260 0.901250 -0.005884
0.307895 0.624144 -0.009473 -0.525273 0.838594 -0.144388
0.317368 0.626776 -0.009473 -0.298179 0.845421 0.443117
-0.165790 0.645321 -0.009473 -0.592840 0.640214 -0.488535
-0.156316 0.659310 -0.009473 -0.632400 0.735156 -0.244164
-0.146842 0.663160 -0.009495 -0.527369 0.650499 -0.546565
-0.146915 0.663160 -0.009473 -0.809453 0.553226 -0.196794
-0.137369 0.663160 -0.015360 -0.396234 0.254130 -0.882279
-0.071053 0.663160 -0.012801 0.475314 -0.167937 0.863640
-0.075379 0.663160 -0.009473 0.307326 -0.187893 0.932870
-0.052105 0.663160 -0.012498 0.946573 0.212929 0.242199
0.137368 0.663160 -0.014709 0.527205 0.489987 -0.694239
0.145756 0.663160 -0.009473 0.691627 0.282394 -0.664760
0.146842 0.658599 -0.009473 0.741779 -0.216463 -0.634750
0.175263 0.651614 -0.009473 0.156500 -0.464023 0.871889
0.177778 0.663160 -0.009473 -0.164384 -0.316521 0.934233
-0.146842 0.664010 -0.009473 -0.956541 0.040387 -0.288786
-0.137369 0.684213 -0.013896 -0.860994 -0.183859 -0.474220
-0.146336 0.684213 -0.009473 -0.645188 -0.182366 -0.741940
-0.071053 0.673215 -0.009473 0.598460 -0.736400 0.315532
-0.061579 0.677578 -0.009473 0.501218 -0.643982 0.577985
-0.052105 0.684213 -0.013929 0.453715 -0.644638 0.615292
-0.058742 0.684213 -0.009473 0.535949 -0.103761 0.837850
-0.033158 0.684213 -0.015535 0.925949 -0.146222 -0.348191
0.127895 0.684213 -0.014651 0.900472 -0.324040 -0.290081
0.146842 0.684213 -0.011356 0.902479 -0.027582 -0.429851
0.146842 0.665603 -0.009473 0.568587 0.610771 -0.551061
0.152274 0.684213 -0.009473 0.330511 0.222297 -0.917249
0.175263 0.684213 -0.012765 -0.785793 -0.230954 0.573751
0.179525 0.684213 -0.009473 -0.443863 -0.085332 0.892022
-0.149286 0.705265 -0.009473 -0.441518 -0.153806 -0.883971
-0.146842 0.688862 -0.009473 -0.512537 -0.170695 -0.841528
-0.052105 0.705265 -0.011665 0.632580 -0.260340 0.729428
-0.058504 0.705265 -0.009473 0.679547 -0.461206 0.570530
-0.004737 0.705265 -0.012693 0.991154 -0.129174 0.030456
0.011735 0.705265 -0.009473 0.405757 0.036099 -0.913268
0.014210 0.699799 -0.009473 0.302066 -0.850653 0.430286
0.016732 0.705265 -0.009473 0.340414 0.268766 0.901045
0.118421 0.705265 -0.014964 0.742295 -0.377702 -0.553479
0.127895 0.705265 -0.011253 0.859064 -0.381725 -0.341022
0.137368 0.705265 -0.012649 0.729898 -0.670887 0.130994
0.146532 0.705265 -0.009473 0.530767 -0.802830 -0.271571
0.146842 0.704868 -0.009473 0.857941 -0.428526 -0.283378
0.148096 0.705265 -0.009473 0.727887 -0.676601 0.111321
0.156316 0.705265 -0.010601 0.638945 -0.745079 0.191329
0.156316 0.702215 -0.009473 0.957101 -0.278732 -0.079159
0.165789 0.699890 -0.009473 -0.031944 0.708760 -0.704726
0.167424 0.705265 -0.009473 -0.330357 -0.354910 -0.874587
0.178530 0.705265 -0.009473 -0.196084 0.029230 0.980151
-0.146842 0.724937 -0.009473 -0.232121 0.303270 -0.924201
-0.146717 0.726318 -0.009473 -0.461304 0.369531 -0.806626
-0.052105 0.712030 -0.009473 0.437125 -0.856737 0.273720
-0.042632 0.716881 -0.009473 0.261841 -0.964026 0.045743
-0.033158 0.716070 -0.009473 0.303852 -0.952705 -0.005192
-0.023684 0.716676 -0.009473 0.261998 -0.964978 0.013202
-0.014211 0.716674 -0.009473 0.340096 -0.891897 0.298086
-0.004737 0.726318 -0.011866 0.426733 -0.853149 0.300060
-0.008651 0.726318 -0.009473 0.454116 -0.524154 0.720445
0.004737 0.726318 -0.011424 0.972105 -0.222286 0.074836
0.014210 0.711963 -0.009473 0.803789 0.557504 -0.207636
0.014210 0.726318 -0.012695 0.994850 -0.100067 0.016117
0.023684 0.726318 -0.012477 0.844943 -0.405893 -0.348315
0.028143 0.726318 -0.009473 0.239530 -0.419221 -0.875717
0.033158 0.715296 -0.009473 0.265859 -0.885486 -0.381096
0.042631 0.719297 -0.009473 0.169632 -0.984241 0.049949
0.052105 0.716112 -0.009473 0.259101 -0.947940 -0.185139
0.061579 0.707656 -0.009473 0.305938 -0.952040 -0.004725
0.071052 0.723430 -0.009473 0.438837 -0.886385 0.147456
0.080526 0.716221 -0.009473 0.322964 -0.934579 -0.149187
0.090000 0.716103 -0.009473 0.190680 -0.973711 0.124610
0.099474 0.722806 -0.009473 0.321996 -0.945573 0.047017
0.108947 0.717557 -0.009473 0.246545 -0.968474 0.035698
0.118421 0.726318 -0.010038 0.313790 -0.899931 0.302755
0.117839 0.726318 -0.009473 0.245525 -0.746279 0.618696
0.120924 0.726318 -0.009473 0.678015 -0.688042 -0.258639
0.127895 0.719330 -0.009473 0.461150 -0.768304 -0.443902
0.137368 0.708906 -0.009473 0.332652 -0.929511 -0.159223
0.156316 0.706957 -0.009473 0.342873 -0.934260 0.097959
0.165789 0.709324 -0.009473 -0.280094 -0.959234 -0.037646
0.165789 0.726318 -0.013389 -0.926626 0.101881 0.361918
0.175263 0.726318 -0.014870 -0.844273 -0.028245 0.535169
0.183115 0.726318 -0.009473 -0.716004 -0.017029 0.697888
0.241579 0.726318 -0.013042 -0.584549 -0.690961 -0.425295
0.240261 0.726318 -0.009473 -0.317977 -0.349735 -0.881236
0.241579 0.723889 -0.009473 -0.602147 -0.786074 -0.139667
0.243441 0.726318 -0.009473 -0.484510 -0.588251 0.647465
-0.137369 0.740980 -0.009473 -0.425812 0.653762 -0.625524
-0.134091 0.747371 -0.009473 -0.447992 0.259482 -0.855554
-0.042632 0.747371 -0.011619 0.953391 -0.211744 -0.214968
-0.042632 0.739584 -0.009473 0.585614 0.789377 -0.184230
-0.048080 0.747371 -0.009473 0.279614 0.369558 0.886139
-0.039220 0.747371 -0.009473 -0.066300 -0.022910 -0.997537
-0.004737 0.734702 -0.009473 0.493363 -0.836504 0.238441
0.004737 0.732536 -0.009473 0.492163 -0.857083 0.152264
0.009829 0.747371 -0.009473 0.203878 0.050734 0.977681
0.023684 0.740185 -0.009473 0.452274 -0.356096 -0.817707
0.020575 0.747371 -0.009473 0.275796 0.214003 -0.937091
0.080526 0.747371 -0.010783 0.771474 -0.632762 0.066634
0.080526 0.741274 -0.009473 0.994931 0.062467 0.078800
0.077962 0.747371 -0.009473 0.636341 -0.452683 0.624618
0.083399 0.747371 -0.009473 0.680281 -0.334237 -0.652307
0.099474 0.747371 -0.014203 0.909630 -0.316305 0.269305
0.099474 0.734328 -0.009473 0.650923 0.624191 0.432071
0.096347 0.747371 -0.009473 0.521332 -0.429148 0.737594
0.108947 0.747371 -0.012279 0.779329 -0.504555 -0.371577
0.108947 0.739224 -0.009473 0.712603 0.655539 -0.249932
0.118421 0.728174 -0.009473 0.492661 -0.824392 0.278680
0.113520 0.747371 -0.009473 0.528019 -0.416329 -0.740180
0.165789 0.745259 -0.009473 0.690112 0.596962 0.409123
0.165047 0.747371 -0.009473 0.322270 0.484660 0.813171
0.175263 0.747371 -0.013481 -0.813156 0.534376 0.230693
0.166869 0.747371 -0.009473 -0.297778 0.218450 -0.929305
0.182013 0.747371 -0.009473 -0.510609 0.256759 0.820581
0.232105 0.747371 -0.010790 -0.781938 0.182590 -0.596015
0.229947 0.747371 -0.009473 -0.546259 0.299633 -0.782190
0.232105 0.744653 -0.009473 -0.600044 -0.558297 -0.572933
0.241579 0.747371 -0.014917 -0.838552 0.266006 -0.475470
0.249030 0.747371 -0.009473 -0.702460 -0.035239 0.710850
0.264433 0.747371 -0.009473 -0.616703 -0.217753 -0.756479
0.270000 0.727794 -0.009473 -0.793870 -0.602760 0.080316
0.279473 0.743324 -0.009473 -0.487406 -0.844052 0.223633
0.279473 0.747371 -0.010516 -0.797485 -0.603141 0.015463
0.288947 0.742825 -0.009473 -0.439818 -0.894818 0.076563
0.298421 0.746077 -0.009473 -0.328910 -0.910167 0.251823
0.298421 0.747371 -0.013590 -0.461808 0.215342 0.860443
0.300480 0.747371 -0.009473 -0.637408 -0.223213 0.737487
0.364737 0.747371 -0.009576 -0.934587 -0.345857 0.083247
0.364540 0.747371 -0.009473 -0.799607 0.101966 -0.591803
0.364737 0.747053 -0.009473 -0.727482 -0.685559 0.027896
0.364914 0.747371 -0.009473 -0.873822 -0.218981 0.434146
-0.127895 0.768423 -0.011485 0.016795 -0.264301 -0.964294
-0.129572 0.768423 -0.009473 -0.454204 -0.437850 -0.775878
-0.042632 0.758466 -0.009473 0.627121 -0.618313 -0.473718
-0.023684 0.768423 -0.012096 0.978072 -0.015244 0.207708
-0.023684 0.758332 -0.009473 0.551559 0.789733 0.268523
-0.028457 0.768423 -0.009473 0.537106 -0.035619 0.842762
-0.014211 0.768423 -0.011871 0.996005 0.046791 0.076058
-0.014211 0.760394 -0.009473 0.351212 0.936034 0.022153
-0.004737 0.768423 -0.013025 0.974336 0.079710 0.210511
-0.004737 0.757977 -0.009473 0.349365 0.935931 0.044460
0.004737 0.768423 -0.014859 0.872859 -0.471553 -0.125518
0.004737 0.758382 -0.009473 0.462736 0.876857 0.130373
0.014210 0.768423 -0.012509 0.994815 0.067299 -0.076254
0.023684 0.754129 -0.009473 0.441704 0.632815 -0.635958
0.023684 0.768423 -0.012808 0.869942 -0.444748 -0.213073
0.028290 0.768423 -0.009473 0.059124 0.064897 -0.996139
0.080526 0.751581 -0.009473 0.585165 -0.798279 0.142592
0.099474 0.752832 -0.009473 0.367292 -0.886464 0.281564
0.108947 0.754567 -0.009473 0.415132 -0.888153 -0.197101
0.156316 0.768423 -0.015616 -0.352279 0.477836 0.804718
0.161235 0.768423 -0.009473 -0.193840 0.279814 0.940282
0.175263 0.767882 -0.009473 -0.826771 0.537987 0.164380
0.232105 0.750782 -0.009473 -0.491711 0.775177 -0.396636
0.241579 0.760497 -0.009473 -0.619075 0.785331 -0.001494
0.270000 0.768423 -0.015350 -0.837112 -0.541069 -0.080547
0.264672 0.768423 -0.009473 -0.514969 -0.329705 -0.791266
0.275605 0.768423 -0.009473 -0.577747 -0.250076 0.776963
0.279473 0.754568 -0.009473 -0.778067 0.592074 0.209903
0.288947 0.753112 -0.009473 -0.447812 0.889964 0.086190
0.298421 0.749904 -0.009473 -0.295506 0.888031 0.352245
0.364737 0.747887 -0.009473 -0.896832 0.425005 0.122728
0.393158 0.768423 -0.009777 -0.747983 -0.518415 -0.414449
0.392773 0.768423 -0.009473 -0.379686 -0.422523 -0.822990
0.393158 0.766820 -0.009473 -0.354075 -0.579410 -0.734108
0.402631 0.767744 -0.009473 -0.859968 -0.355655 0.366012
0.402631 0.768423 -0.009598 -0.728675 -0.371005 0.575664
0.402787 0.768423 -0.009473 -0.334971 -0.176200 0.925607
0.416458 0.768423 -0.009473 -0.356278 -0.436529 -0.826141
-0.146842 0.789476 -0.010422 -0.799771 0.041258 -0.598885
-0.148247 0.789476 -0.009473 -0.502659 0.249267 -0.827768
-0.146842 0.782457 -0.009473 -0.510658 -0.587804 -0.627467
-0.137369 0.778053 -0.009473 -0.510919 -0.830382 -0.222324
-0.137369 0.789476 -0.013343 -0.920389 0.299493 -0.251370
-0.127895 0.789476 -0.013804 -0.424488 0.515689 -0.744228
-0.023684 0.776878 -0.009473 0.353765 -0.914872 0.194577
-0.014211 0.776222 -0.009473 0.421104 -0.903461 0.080184
-0.004737 0.779046 -0.009473 0.252929 -0.966829 0.035605
0.004737 0.779040 -0.009473 0.184342 -0.982840 -0.006601
0.014210 0.778828 -0.009473 0.243140 -0.969893 -0.013802
0.023684 0.778501 -0.009473 0.109414 -0.907330 -0.405932
0.156316 0.789476 -0.012073 -0.819485 0.201501 0.536508
0.162545 0.789476 -0.009473 -0.499369 0.139147 0.855142
0.184737 0.789476 -0.010044 -0.960431 0.214114 0.178123
0.178324 0.789476 -0.009473 -0.932914 -0.237059 -0.271064
0.184737 0.784607 -0.009473 -0.910615 -0.135880 0.390277
0.186588 0.789476 -0.009473 -0.723149 0.324337 0.609804
0.213158 0.789476 -0.010402 -0.989744 -0.139228 -0.031978
0.205647 0.789476 -0.009473 -0.899783 0.379891 -0.214649
0.213158 0.786979 -0.009473 -0.579725 -0.814672 -0.015099
0.222631 0.788775 -0.009473 -0.544960 -0.837791 -0.033535
0.222631 0.789476 -0.009930 -0.997487 0.021270 -0.067581
0.232105 0.785272 -0.009473 -0.491911 -0.840146 -0.228424
0.232105 0.789476 -0.011198 -0.937437 -0.209545 -0.278034
0.241579 0.774919 -0.009473 -0.582924 -0.782228 -0.219817
0.241579 0.789476 -0.013688 -0.955995 -0.155704 -0.248655
0.251052 0.785693 -0.009473 -0.474287 -0.873496 0.109805
0.251052 0.789476 -0.014519 -0.684489 -0.214041 -0.696894
0.260526 0.777022 -0.009473 -0.511936 -0.725369 -0.460174
0.279473 0.772839 -0.009473 -0.381233 -0.874137 0.300907
0.288947 0.778860 -0.009473 -0.241499 -0.961062 0.134308
0.298421 0.777944 -0.009473 -0.194250 -0.974801 0.109682
0.307895 0.782914 -0.009473 -0.251377 -0.911041 0.326824
0.307895 0.789476 -0.013042 -0.738102 0.431170 0.518939
0.313364 0.789476 -0.009473 -0.356213 -0.325388 0.875919
0.364737 0.789476 -0.015475 -0.810417 -0.568737 0.140583
0.357030 0.789476 -0.009473 -0.609399 -0.142442 -0.779963
0.364737 0.776511 -0.009473 -0.613782 -0.767205 -0.186195
0.374210 0.786663 -0.009473 -0.441398 -0.858558 0.260856
0.374210 0.789476 -0.010861 -0.878940 -0.261709 0.398713
0.383684 0.788160 -0.009473 -0.639501 -0.725313 -0.254872
0.383684 0.789476 -0.010607 -0.829931 0.318477 -0.458025
0.393158 0.789476 -0.014300 -0.997149 -0.075362 -0.003795
0.402631 0.789476 -0.012424 -0.964542 -0.060008 0.257016
0.412105 0.781038 -0.009473 -0.635676 -0.688627 -0.348869
0.412105 0.789476 -0.012208 -0.920165 -0.093944 -0.380094
-0.146842 0.791975 -0.009473 -0.478198 0.794763 -0.373735
-0.137369 0.805794 -0.009473 -0.590595 0.792003 -0.154688
-0.127895 0.803236 -0.009473 -0.354428 0.931272 -0.084335
-0.118421 0.807254 -0.009473 -0.463914 0.876163 -0.130851
-0.118421 0.810529 -0.013715 -0.014398 0.924354 -0.381263
-0.108947 0.810529 -0.015356 0.201250 0.782423 -0.589332
-0.108947 0.808532 -0.009473 0.113995 0.963415 -0.242565
-0.107612 0.810529 -0.009473 -0.169294 0.750214 -0.639155
0.156316 0.805634 -0.009473 -0.180793 0.804751 0.565412
0.153259 0.810529 -0.009473 -0.059940 0.938714 0.339445
0.175263 0.810529 -0.009893 -0.645692 0.763567 -0.006849
0.173915 0.810529 -0.009473 -0.533144 0.752298 -0.387048
0.175263 0.798833 -0.009473 -0.982199 0.148631 -0.114867
0.184737 0.794195 -0.009473 -0.758489 0.513268 0.401561
0.176656 0.810529 -0.009473 -0.598338 0.724869 0.341403
0.213158 0.791677 -0.009473 -0.501402 0.865184 0.007240
0.222631 0.790236 -0.009473 -0.508522 0.858671 -0.063951
0.232105 0.796805 -0.009473 -0.569641 0.773961 -0.276574
0.241579 0.801304 -0.009473 -0.518668 0.838550 0.166786
0.251052 0.793112 -0.009473 -0.495588 0.847501 -0.190093
0.260526 0.810529 -0.013834 -0.644084 0.099374 -0.758472
0.257233 0.810529 -0.009473 -0.374401 -0.029260 -0.926805
0.270000 0.810529 -0.014875 -0.872182 0.065353 0.484796
0.276436 0.810529 -0.009473 -0.720470 0.314992 0.617822
0.279473 0.808015 -0.009473 -0.465251 0.832681 0.300306
0.288947 0.804048 -0.009473 -0.466063 0.880608 0.085520
0.298421 0.804952 -0.009473 -0.399896 0.873287 0.278303
0.307895 0.795653 -0.009473 -0.254712 0.903302 0.345208
0.364737 0.800106 -0.009473 -0.649293 0.760538 0.000652
0.374210 0.793231 -0.009473 -0.628598 0.751438 0.200514
0.383684 0.790547 -0.009473 -0.232996 0.930067 -0.284055
0.393158 0.810529 -0.009551 -0.682048 0.266206 -0.681135
0.393065 0.810529 -0.009473 -0.221390 0.405990 -0.886656
0.393607 0.810529 -0.009473 -0.828391 0.291419 0.478375
0.402631 0.801580 -0.009473 -0.565485 0.824415 0.023792
0.412105 0.805899 -0.009473 -0.421202 0.861829 -0.282559
0.416896 0.810529 -0.009473 -0.527975 0.159304 -0.834185
-0.099474 0.830215 -0.009473 -0.676578 0.557968 -0.480535
-0.098619 0.831581 -0.009473 -0.589872 0.185898 -0.785807
0.004737 0.831581 -0.009668 0.849522 -0.200930 -0.487790
0.004737 0.831073 -0.009473 0.474378 0.849488 -0.230945
0.002910 0.831581 -0.009473 0.834599 -0.461417 0.300898
0.005043 0.831581 -0.009473 0.262757 -0.237137 -0.935267
0.127895 0.831581 -0.010962 -0.211366 0.427998 0.878716
0.128777 0.831581 -0.009473 -0.134755 0.810881 0.569485
0.137368 0.821054 -0.009473 0.004965 0.858105 0.513451
0.146842 0.814169 -0.009473 0.067742 0.969243 0.236598
0.175263 0.811435 -0.009473 -0.342872 0.938270 0.045698
0.253461 0.831581 -0.009473 -0.310754 0.329752 -0.891457
0.279473 0.816221 -0.009473 -0.657467 -0.642849 0.393042
0.288947 0.820100 -0.009473 -0.593058 -0.791014 0.150266
0.298421 0.826433 -0.009473 -0.384867 -0.792267 0.473487
0.298421 0.831581 -0.011904 -0.265628 -0.030770 0.963584
0.300128 0.831581 -0.009473 -0.465083 -0.399876 0.789808
0.375857 0.831581 -0.009473 -0.308502 -0.680949 -0.664180
0.383684 0.824369 -0.009473 -0.384744 -0.873322 -0.298799
0.393158 0.831581 -0.013444 -0.732070 -0.544754 0.409044
0.400396 0.831581 -0.009473 -0.385031 -0.416821 0.823415
0.404719 0.831581 -0.009473 -0.067936 -0.505106 -0.860379
0.412105 0.814111 -0.009473 -0.121290 -0.930746 -0.344963
-0.127895 0.852634 -0.011754 -0.996407 0.003356 -0.084633
-0.131725 0.852634 -0.009473 -0.770438 -0.107425 -0.628398
-0.127895 0.845927 -0.009473 -0.791298 -0.554710 -0.257187
-0.118421 0.851788 -0.009473 -0.776030 -0.547741 0.312660
-0.118421 0.852634 -0.009707 -0.760136 -0.377977 0.528513
-0.117997 0.852634 -0.009473 -0.894665 -0.029638 0.445753
-0.099474 0.852634 -0.011021 -0.647380 0.224233 -0.728435
-0.101393 0.852634 -0.009473 -0.749571 0.044080 -0.660454
-0.099474 0.835984 -0.009473 -0.855772 -0.149571 -0.495260
0.004737 0.832266 -0.009473 0.388979 -0.813485 -0.432362
0.127895 0.837335 -0.009473 -0.201064 0.211057 0.956571
0.126828 0.852634 -0.009473 -0.261668 0.252854 0.931448
0.260526 0.841635 -0.009473 -0.209303 0.918717 -0.334889
0.270000 0.847581 -0.009473 -0.348523 0.932142 0.098196
0.279473 0.838341 -0.009473 -0.308917 0.941242 0.136503
0.288947 0.842826 -0.009473 -0.340978 0.938096 -0.060904
0.298421 0.835109 -0.009473 -0.495314 0.727342 0.475013
0.383684 0.844716 -0.009473 -0.518722 0.687621 -0.508039
0.383684 0.852634 -0.014195 0.669158 0.467152 -0.577924
0.387859 0.852634 -0.009473 -0.567038 0.142817 -0.811216
0.402631 0.843189 -0.009473 -0.907597 -0.251766 0.335978
-0.127895 0.863754 -0.009473 -0.947520 0.178412 -0.265284
-0.118421 0.873687 -0.011934 -0.812139 0.249927 -0.527225
-0.123146 0.873687 -0.009473 -0.779229 0.234367 -0.581270
-0.108947 0.860835 -0.009473 -0.668665 -0.740270 0.069912
-0.108947 0.873687 -0.014308 -0.963266 0.160164 0.215561
-0.099474 0.861060 -0.009473 -0.926123 -0.128240 -0.354755
-0.101326 0.873687 -0.009473 -0.450784 -0.435558 0.779155
-0.090000 0.873687 -0.014456 -0.845913 0.101607 -0.523552
-0.097323 0.873687 -0.009473 -0.514898 -0.167766 -0.840675
-0.033158 0.873687 -0.011656 0.843451 0.534676 0.052071
-0.033158 0.869990 -0.009473 0.377368 0.899641 0.219635
-0.036948 0.873687 -0.009473 0.538505 0.189549 0.821026
-0.023684 0.873687 -0.010360 0.918734 0.373750 -0.127432
-0.023684 0.871382 -0.009473 0.393420 0.916570 -0.071552
-0.014211 0.873687 -0.009597 0.707491 0.694190 0.132499
-0.014211 0.873361 -0.009473 0.316652 0.946837 0.056838
-0.004737 0.873687 -0.015404 0.814901 0.135897 0.563443
-0.004737 0.869505 -0.009473 0.361453 0.929201 -0.077053
0.000870 0.873687 -0.009473 0.261104 0.772229 -0.579212
0.090000 0.873687 -0.012629 -0.319899 0.653933 0.685592
0.093673 0.873687 -0.009473 0.059649 0.787629 0.613256
0.099474 0.869379 -0.009473 0.126112 0.966165 0.224993
0.108947 0.873687 -0.011993 0.910392 0.403024 0.093582
0.108947 0.868142 -0.009473 0.022169 0.999437 -0.025175
0.118421 0.871547 -0.009473 -0.032048 0.983797 0.176396
0.137368 0.873687 -0.009631 -0.980971 0.177279 -0.079171
0.136969 0.873687 -0.009473 -0.620688 0.451843 -0.640769
0.137368 0.873088 -0.009473 -0.967400 -0.245639 -0.061630
0.137888 0.873687 -0.009473 -0.876047 -0.249920 0.412410
0.387844 0.873687 -0.009473 -0.450724 -0.352994 -0.819904
0.393158 0.873687 -0.013329 -0.913307 -0.399964 0.076809
0.402631 0.873687 -0.011098 -0.854127 0.502462 0.134161
0.412105 0.873687 -0.012444 -0.697267 0.596437 -0.397594
-0.118421 0.886091 -0.009473 -0.774939 0.483415 -0.407160
-0.108947 0.894739 -0.011022 -0.942125 0.022738 -0.334489
-0.112839 0.894739 -0.009473 -0.822203 -0.211340 -0.528505
-0.099474 0.886913 -0.009473 -0.929583 0.363844 0.059098
-0.099474 0.894739 -0.010765 -0.963723 -0.018750 -0.266246
-0.090000 0.894739 -0.013525 -0.978035 -0.073200 -0.195163
-0.080526 0.894739 -0.013951 -0.980683 0.179404 0.077937
-0.071053 0.894739 -0.009799 -0.968501 0.187029 0.164393
-0.033158 0.881525 -0.009473 0.511314 -0.852777 0.106438
-0.023684 0.878135 -0.009473 0.653908 -0.754114 -0.060970
-0.014211 0.875912 -0.009473 0.847037 -0.410424 0.337759
-0.004737 0.884919 -0.009473 -0.046776 -0.894725 -0.444161
0.090672 0.894739 -0.009473 -0.415693 -0.589094 0.692942
0.104335 0.894739 -0.009473 -0.221605 -0.524259 -0.822219
0.108947 0.887429 -0.009473 -0.135167 -0.895464 -0.424116
0.118421 0.893093 -0.009473 -0.384947 -0.766879 0.513530
0.118421 0.894739 -0.009662 -0.629515 -0.311354 0.711877
0.118675 0.894739 -0.009473 -0.653569 -0.168901 0.737780
0.137368 0.874789 -0.009473 -0.789396 0.610394 -0.065368
0.175263 0.894739 -0.009567 -0.781509 -0.594075 0.190574
0.174808 0.894739 -0.009473 -0.814747 -0.458915 -0.354379
0.175263 0.894415 -0.009473 -0.710986 -0.675162 0.196608
0.175489 0.894739 -0.009473 -0.446966 -0.728429 0.519242
0.203684 0.894739 -0.011492 -0.502297 -0.600076 0.622581
0.202183 0.894739 -0.009473 -0.312883 -0.493550 -0.811488
0.203684 0.891702 -0.009473 -0.428103 -0.903205 -0.030791
0.204703 0.894739 -0.009473 -0.270185 -0.319233 0.908345
0.241579 0.894739 -0.011782 -0.914113 -0.316866 -0.252970
0.235327 0.894739 -0.009473 -0.530262 -0.431802 -0.729636
0.241579 0.886383 -0.009473 -0.554141 -0.763982 -0.330543
0.251052 0.883299 -0.009473 -0.741081 -0.618529 0.261191
0.251052 0.894739 -0.011666 -0.623779 0.150208 0.767032
0.251539 0.894739 -0.009473 -0.304292 0.099551 0.947363
0.270000 0.894739 -0.013402 -0.434776 0.338179 0.834628
0.268631 0.894739 -0.009473 -0.175554 -0.142379 -0.974120
0.270000 0.888308 -0.009473 -0.867138 -0.261522 -0.423885
0.271327 0.894739 -0.009473 -0.289533 -0.074330 0.954278
0.364737 0.894739 -0.010274 -0.794973 0.606315 -0.020014
0.363411 0.894739 -0.009473 -0.644723 0.261538 -0.718282
0.364737 0.890061 -0.009473 -0.829990 0.499909 -0.247401
0.365908 0.894739 -0.009473 -0.588118 0.306935 0.748270
0.380502 0.894739 -0.009473 -0.265504 0.081087 -0.960694
0.383684 0.880324 -0.009473 -0.334321 -0.721540 -0.606308
0.402631 0.880970 -0.009473 -0.901262 0.306426 0.306316
0.399726 0.894739 -0.009473 -0.438670 -0.176571 0.881131
0.412105 0.894739 -0.010515 -0.929889 0.274357 -0.245020
0.408159 0.894739 -0.009473 -0.821323 0.069020 -0.566273
-0.137369 0.915792 -0.012832 -0.770647 -0.248247 -0.586922
-0.144047 0.915792 -0.009473 -0.768450 0.000008 -0.639909
-0.137369 0.900145 -0.009473 -0.639812 -0.749803 -0.168631
-0.127895 0.898933 -0.009473 -0.341344 -0.939811 -0.015476
-0.118421 0.899113 -0.009473 -0.486461 -0.872723 -0.041361
-0.118421 0.915792 -0.014216 -0.916215 -0.239188 0.321465
-0.108947 0.915792 -0.012496 -0.977986 -0.207828 -0.018724
-0.099474 0.915792 -0.013496 -0.978118 -0.142563 -0.151530
-0.090000 0.915792 -0.014972 -0.980188 -0.191537 -0.050444
-0.080526 0.915792 -0.014090 -0.984897 -0.077599 0.154781
-0.071053 0.915792 -0.011333 -0.904881 -0.382893 -0.185967
-0.052105 0.915792 -0.015144 -0.830943 0.136398 0.539379
-0.044022 0.915792 -0.009473 -0.538611 0.211024 0.815701
-0.042632 0.913705 -0.009473 -0.893700 0.441711 0.078686
-0.033158 0.915792 -0.013888 -0.697838 0.670326 -0.252358
-0.040445 0.915792 -0.009473 -0.539816 0.539763 -0.645952
-0.023684 0.915792 -0.014617 -0.782673 0.615380 0.093440
-0.014211 0.915792 -0.012523 -0.710126 0.658261 0.249827
-0.005153 0.915792 -0.009473 -0.754683 -0.050723 0.654126
-0.004737 0.915105 -0.009473 -0.550390 0.740478 0.385697
0.004737 0.913224 -0.009473 -0.551514 0.821359 -0.145608
0.014210 0.915792 -0.011213 -0.672576 0.717850 -0.179815
0.008417 0.915792 -0.009473 -0.446547 0.768160 -0.458831
0.023684 0.915792 -0.011907 -0.665707 0.735953 0.123318
0.029704 0.915792 -0.009473 -0.514408 0.817165 0.260051
0.033158 0.914240 -0.009473 -0.317806 0.948146 0.004337
0.042631 0.915792 -0.011511 -0.489519 0.843648 -0.220523
0.037978 0.915792 -0.009473 -0.647251 0.734916 -0.202398
0.052105 0.915792 -0.012717 -0.734603 0.675979 -0.058398
0.061579 0.915792 -0.013336 -0.960560 0.230680 0.155277
0.071052 0.915792 -0.010613 -0.681752 0.718154 0.139531
0.080526 0.915792 -0.010807 -0.860325 0.499582 -0.101288
0.090000 0.915792 -0.011861 -0.997538 -0.028043 -0.064281
0.099474 0.905804 -0.009473 -0.889233 -0.436531 0.136764
0.099474 0.915792 -0.011789 -0.960984 0.102539 0.256894
0.108947 0.914043 -0.009473 -0.977101 -0.210571 0.030549
0.108124 0.915792 -0.009473 -0.913782 -0.317993 0.252749
0.118421 0.915792 -0.009979 -0.969092 -0.178791 -0.169982
0.111343 0.915792 -0.009473 -0.982256 -0.155695 -0.104557
0.127895 0.905745 -0.009473 -0.798715 -0.598127 0.065557
0.127895 0.915792 -0.011527 -0.919968 -0.385154 -0.072909
0.137368 0.908439 -0.009473 -0.608144 -0.792708 0.042133
0.137368 0.915792 -0.011342 -0.855490 -0.517656 0.013000
0.146842 0.908444 -0.009473 -0.632002 -0.763454 0.133086
0.146842 0.915792 -0.011306 -0.900639 -0.413792 0.132762
0.155107 0.915792 -0.009473 -0.508262 -0.785863 0.352262
0.165789 0.915792 -0.011166 -0.833435 -0.462924 -0.301805
0.158485 0.915792 -0.009473 -0.717853 -0.655651 -0.234113
0.165789 0.907213 -0.009473 -0.717122 -0.590632 -0.369986
0.175263 0.915792 -0.013138 -0.981572 -0.146021 -0.123264
0.184737 0.906362 -0.009473 -0.578309 -0.726493 0.371169
0.184737 0.915792 -0.013729 -0.898382 -0.202713 0.389639
0.191974 0.915792 -0.009473 -0.539901 -0.678551 0.498072
0.203684 0.915792 -0.011699 -0.961694 -0.186545 0.200864
0.196448 0.915792 -0.009473 -0.611226 -0.502243 -0.611682
0.207181 0.915792 -0.009473 -0.441340 -0.286671 0.850317
0.232105 0.915792 -0.009836 -0.864790 -0.231594 -0.445537
0.231486 0.915792 -0.009473 -0.586869 -0.522684 -0.618374
0.232105 0.912651 -0.009473 -0.596066 -0.393944 -0.699652
0.241579 0.915792 -0.012376 -0.936230 0.136552 0.323770
0.248328 0.915792 -0.009473 -0.682204 -0.159981 0.713445
0.251052 0.900841 -0.009473 -0.462816 0.032005 0.885877
0.270000 0.915792 -0.011780 -0.968785 -0.173468 0.177102
0.264747 0.915792 -0.009473 -0.480696 -0.369225 -0.795364
0.272893 0.915792 -0.009473 -0.405609 -0.110113 0.907390
0.364737 0.902410 -0.009473 -0.996162 -0.000861 -0.087525
0.374210 0.914787 -0.009473 -0.816253 0.488913 -0.307726
0.374210 0.915792 -0.011031 -0.747636 0.643347 -0.164757
0.372607 0.915792 -0.009473 -0.666996 0.602489 -0.438319
0.383684 0.915792 -0.010672 -0.891999 0.199535 -0.405615
0.393158 0.915792 -0.015491 -0.979572 0.159349 0.122667
0.402631 0.910187 -0.009473 -0.799384 -0.061899 0.597623
0.402631 0.915792 -0.010744 -0.925862 0.113546 0.360397
0.412105 0.913465 -0.009473 -0.697920 -0.558679 -0.448090
0.410244 0.915792 -0.009473 -0.958520 -0.197454 0.205552
0.412333 0.915792 -0.009473 -0.477025 -0.261382 -0.839123
-0.137369 0.935029 -0.009473 -0.716842 0.262899 -0.645772
-0.136863 0.936845 -0.009473 -0.625560 0.143045 -0.766951
-0.108947 0.936845 -0.012857 -0.992928 -0.001133 0.118716
-0.099474 0.936845 -0.015300 -0.730151 -0.255033 -0.633907
-0.080526 0.936845 -0.014965 -0.791835 -0.284851 0.540238
-0.071053 0.936845 -0.012649 -0.858363 0.433305 -0.274700
-0.052105 0.936845 -0.014441 -0.619559 0.059707 0.782676
-0.046644 0.936845 -0.009473 -0.591303 -0.107381 0.799268
-0.033158 0.925615 -0.009473 -0.540213 0.704195 -0.460739
-0.023684 0.936845 -0.010592 -0.652416 0.540236 0.531506
-0.026519 0.936845 -0.009473 -0.529862 -0.503741 -0.682269
-0.022274 0.936845 -0.009473 -0.292097 -0.167463 0.941613
-0.014211 0.922955 -0.009473 -0.219550 0.929003 0.297912
0.014210 0.934135 -0.009473 -0.882892 0.220783 -0.414435
0.023684 0.936845 -0.010829 -0.844860 -0.508972 0.164799
0.015424 0.936845 -0.009473 -0.671061 -0.694076 -0.260647
0.026913 0.936845 -0.009473 -0.803162 -0.135519 0.580142
0.042631 0.921149 -0.009473 -0.736655 0.573382 -0.358571
0.052105 0.933185 -0.009473 -0.800079 0.316032 -0.509900
0.053765 0.936845 -0.009473 -0.493107 -0.382249 -0.781493
0.071052 0.920230 -0.009473 -0.837814 0.518576 0.170725
0.066768 0.936845 -0.009473 -0.586386 -0.150233 0.795978
0.080526 0.923009 -0.009473 -0.809579 0.500901 -0.306072
0.090000 0.936845 -0.012799 -0.641695 -0.326970 -0.693771
0.085526 0.936845 -0.009473 -0.698943 -0.353421 -0.621750
0.108947 0.918106 -0.009473 -0.961769 -0.226713 0.153627
0.108947 0.936845 -0.013634 -0.446687 -0.894160 -0.030793
0.146842 0.936845 -0.014262 -0.888376 -0.458441 0.024900
0.156316 0.917121 -0.009473 -0.667135 -0.732812 0.133856
0.156316 0.936845 -0.015201 -0.936902 -0.313723 0.154245
0.165789 0.936845 -0.013150 -0.934221 -0.274449 0.227834
0.175263 0.936845 -0.011669 -0.958795 -0.279033 0.053419
0.184737 0.936845 -0.013738 -0.921932 -0.374065 -0.100579
0.194210 0.919629 -0.009473 -0.784496 -0.612989 0.093870
0.194210 0.936845 -0.012777 -0.964424 -0.246441 0.095668
0.203684 0.936845 -0.012173 -0.818565 -0.513315 0.257798
0.211881 0.936845 -0.009473 -0.817809 -0.376195 0.435507
0.232105 0.936845 -0.011849 -0.835645 -0.501995 -0.222931
0.224453 0.936845 -0.009473 -0.495093 -0.665451 -0.558621
0.241579 0.936845 -0.012322 -0.897169 -0.438591 -0.052202
0.251052 0.920840 -0.009473 -0.633177 -0.661014 0.402675
0.251052 0.936845 -0.012681 -0.974399 -0.187874 0.123487
0.260526 0.933882 -0.009473 -0.869160 -0.489859 -0.067817
0.260526 0.936845 -0.009991 -0.992788 -0.061104 -0.103144
0.270000 0.936845 -0.012525 -0.797152 -0.289113 0.530058
0.273932 0.936845 -0.009473 -0.562914 -0.171871 0.808448
0.298421 0.936845 -0.009902 -0.976560 -0.129142 0.172200
0.296800 0.936845 -0.009473 -0.832829 -0.243586 -0.497052
0.298421 0.925023 -0.009473 -0.853948 -0.364277 -0.371584
0.299581 0.936845 -0.009473 -0.536906 0.057336 0.841692
0.374210 0.917849 -0.009473 -0.486834 0.810789 -0.324983
0.383684 0.921953 -0.009473 -0.607091 0.626801 -0.488428
0.386754 0.936845 -0.009473 -0.371229 -0.183240 -0.910282
0.402631 0.936845 -0.010667 -0.590630 -0.527788 0.610407
0.407704 0.936845 -0.009473 -0.946529 -0.284834 0.151501
0.412492 0.936845 -0.009473 -0.468921 -0.230676 -0.852585
-0.156316 0.957897 -0.010924 -0.805472 -0.557847 -0.200052
-0.162540 0.957897 -0.009473 -0.725852 -0.618667 -0.300650
-0.156316 0.953582 -0.009473 -0.570621 -0.794649 -0.207184
-0.146842 0.949790 -0.009473 -0.755794 -0.649825 -0.080638
-0.146842 0.957897 -0.012171 -0.925155 -0.333343 0.181580
-0.140062 0.957897 -0.009473 -0.636747 -0.545356 0.545106
-0.135726 0.957897 -0.009473 -0.420502 -0.070496 -0.904549
-0.108947 0.957897 -0.011636 -0.886032 0.458463 0.068990
-0.099474 0.957897 -0.012640 -0.942047 -0.053230 -0.331232
-0.080526 0.957897 -0.015156 -0.903126 0.311944 0.295050
-0.071053 0.957897 -0.011648 -0.948139 -0.055467 -0.312979
-0.042632 0.948782 -0.009473 -0.568205 -0.683485 0.458248
-0.042632 0.957897 -0.012331 -0.986799 0.110191 -0.118683
-0.033158 0.948342 -0.009473 -0.444251 -0.784554 -0.432570
-0.014211 0.952993 -0.009473 -0.358398 -0.864450 0.352530
-0.014211 0.957897 -0.011381 -0.672454 -0.717254 0.182627
-0.004737 0.938883 -0.009473 -0.293333 -0.908598 -0.297332
0.004737 0.944789 -0.009473 -0.344066 -0.933187 -0.103826
0.014210 0.937312 -0.009473 -0.317281 -0.923323 -0.216351
0.023684 0.957897 -0.015626 -0.769296 -0.549292 0.326286
0.033158 0.951610 -0.009473 -0.622885 -0.776326 0.096604
0.033158 0.957897 -0.011480 -0.614384 -0.788156 -0.036636
0.042631 0.942404 -0.009473 -0.555918 -0.822624 -0.119350
0.052105 0.940670 -0.009473 -0.442260 -0.815449 -0.373429
0.052105 0.957897 -0.012636 -0.760819 -0.648572 0.022555
0.071052 0.946102 -0.009473 -0.494768 -0.815771 0.299535
0.080526 0.944269 -0.009473 -0.562896 -0.789155 -0.245728
0.175263 0.957897 -0.015012 -0.793041 -0.578433 -0.191054
0.213158 0.938148 -0.009473 -0.673362 -0.713226 0.194659
0.213158 0.957897 -0.014444 -0.800551 -0.599259 -0.002635
0.222631 0.939243 -0.009473 -0.575153 -0.791420 -0.207012
0.251052 0.957897 -0.013494 -0.821321 -0.386072 0.419976
0.260453 0.957897 -0.009473 -0.748862 -0.166172 0.641554
0.260526 0.956463 -0.009473 -0.953418 -0.250754 -0.167681
0.260578 0.957897 -0.009473 -0.582711 -0.265027 -0.768250
0.276714 0.957897 -0.009473 -0.460881 -0.231522 0.856730
0.298421 0.957897 -0.010530 -0.945014 0.028159 0.325817
0.294300 0.957897 -0.009473 -0.786839 -0.208114 -0.581010
0.299637 0.957897 -0.009473 -0.367229 0.207864 0.906607
0.383684 0.957897 -0.010760 -0.739643 -0.035138 -0.672081
0.381237 0.957897 -0.009473 -0.656940 0.067678 -0.750899
0.383684 0.950292 -0.009473 -0.559735 -0.337375 -0.756885
0.402631 0.957897 -0.013688 -0.910209 0.069029 0.408356
0.412105 0.938497 -0.009473 -0.703650 -0.595772 -0.387210
0.412105 0.957897 -0.011781 -0.886729 -0.378260 -0.265766
-0.165790 0.964485 -0.009473 -0.818795 -0.421880 -0.389348
-0.137369 0.966060 -0.009473 -0.921223 -0.388410 -0.022059
-0.108947 0.965634 -0.009473 -0.617326 0.759882 0.203686
-0.042632 0.964069 -0.009473 -0.373912 0.858041 0.352074
0.061579 0.962887 -0.009473 0.310601 0.949505 -0.044347
0.071052 0.969968 -0.009473 0.124125 0.922473 -0.365565
0.260526 0.958248 -0.009473 -0.886047 -0.426928 0.180700
0.288947 0.967636 -0.009473 -0.839114 -0.493765 -0.228219
-0.260526 -0.957895 -0.005751 -0.165390 0.982963 -0.080182
-0.262275 -0.957895 -0.003158 -0.141525 0.457961 -0.877635
-0.257956 -0.957895 -0.003158 -0.357353 0.672937 0.647652
-0.105237 -0.957895 -0.003158 0.121669 0.732329 -0.669993
-0.099474 -0.957895 -0.004800 -0.910692 -0.239895 -0.336288
0.061579 -0.957895 -0.007606 -0.845334 -0.502244 0.182104
0.071052 -0.967704 -0.003158 -0.409055 -0.901111 0.143778
0.071052 -0.957895 -0.007858 -0.879015 -0.437350 0.189890
0.080526 -0.962437 -0.003158 -0.337620 -0.904187 0.261647
0.080526 -0.957895 -0.005073 -0.512336 -0.819409 0.257060
0.086507 -0.957895 -0.003158 -0.213744 -0.897871 0.384890
-0.260526 -0.952749 -0.003158 -0.421026 0.897095 0.134004
-0.104922 -0.936842 -0.003158 0.080642 -0.172246 -0.981748
0.090000 -0.944575 -0.003158 -0.296602 -0.569574 0.766559
0.090000 -0.936842 -0.003692 -0.494756 -0.584735 0.642885
0.090906 -0.936842 -0.003158 -0.296656 -0.636781 0.711692
-0.122544 -0.915789 -0.003158 0.233581 -0.279254 -0.931374
-0.118421 -0.922826 -0.003158 0.512055 -0.857634 0.047584
-0.108947 -0.915789 -0.003769 0.518205 -0.715927 -0.467881
-0.110358 -0.915789 -0.003158 0.510718 -0.617678 0.598030
-0.108493 -0.915789 -0.003158 0.214126 -0.076255 -0.973825
0.095446 -0.915789 -0.003158 0.021289 0.051247 0.998459
-0.120480 -0.894737 -0.003158 0.077369 0.057554 -0.995340
-0.108947 -0.900850 -0.003158 0.270479 -0.152504 -0.950570
0.052105 -0.894737 -0.009315 -0.463612 0.639394 0.613383
0.061368 -0.894737 -0.003158 -0.522237 0.638076 0.565798
0.061579 -0.894956 -0.003158 -0.456669 0.873793 0.167152
0.061971 -0.894737 -0.003158 -0.510587 0.768084 -0.386457
0.090000 -0.898953 -0.003158 -0.263939 0.784685 0.560897
0.083897 -0.894737 -0.003158 -0.293347 0.895910 0.333605
-0.298421 -0.873684 -0.006401 -0.534663 0.531752 -0.656792
-0.301282 -0.873684 -0.003158 -0.208369 0.585917 -0.783124
-0.298421 -0.879476 -0.003158 -0.468455 -0.817193 -0.335776
-0.292196 -0.873684 -0.003158 -0.242299 0.399015 0.884352
-0.184737 -0.873684 -0.005861 0.957079 -0.193422 0.215841
-0.119227 -0.873684 -0.003158 0.006881 -0.082978 -0.996528
0.023684 -0.873684 -0.006760 0.302040 0.875335 0.377571
0.023684 -0.876434 -0.003158 -0.222774 0.962358 0.155688
0.021480 -0.873684 -0.003158 -0.003805 0.540993 0.841019
0.033158 -0.873684 -0.006657 0.066400 0.991585 0.111134
0.033158 -0.874548 -0.003158 -0.109174 0.991955 -0.064087
0.042631 -0.873684 -0.003389 -0.178636 0.975368 0.129406
0.041043 -0.873684 -0.003158 -0.249592 0.963505 -0.096756
0.042917 -0.873684 -0.003158 -0.327919 0.868217 0.372383
0.052105 -0.880450 -0.003158 -0.273386 0.878071 0.392749
0.071052 -0.884859 -0.003158 -0.293714 0.940854 -0.168893
0.080526 -0.891020 -0.003158 -0.459362 0.803377 0.378909
-0.298421 -0.869876 -0.003158 -0.076346 0.996671 0.028593
-0.184737 -0.852631 -0.006714 0.522397 -0.451043 -0.723645
-0.175263 -0.852631 -0.003597 -0.342022 -0.822252 0.454887
-0.176319 -0.852631 -0.003158 -0.200864 -0.795220 -0.572083
-0.175263 -0.853632 -0.003158 -0.253231 -0.351005 0.901482
-0.174756 -0.852631 -0.003158 -0.270995 -0.564892 0.779397
-0.127895 -0.852631 -0.008203 -0.115426 0.348759 -0.930078
-0.131887 -0.852631 -0.003158 -0.505538 -0.375753 -0.776686
-0.127895 -0.859045 -0.003158 -0.430381 -0.772095 -0.467591
0.014210 -0.852631 -0.006729 0.052522 0.290309 0.955491
0.014210 -0.859655 -0.003158 -0.297909 0.552890 0.778179
0.012229 -0.852631 -0.003158 0.050198 0.137337 0.989252
0.042631 -0.873028 -0.003158 -0.393237 0.806323 0.441823
-0.222632 -0.831579 -0.004019 -0.467737 -0.883287 0.032041
-0.228550 -0.831579 -0.003158 -0.319675 -0.936703 -0.142812
-0.222632 -0.833759 -0.003158 -0.356802 -0.934169 0.004488
-0.216957 -0.831579 -0.003158 -0.468055 -0.871686 0.145219
-0.203684 -0.831579 -0.006435 -0.526563 -0.849313 -0.037397
-0.210842 -0.831579 -0.003158 -0.524109 -0.807680 -0.270117
-0.203684 -0.836931 -0.003158 -0.494113 -0.861027 -0.120357
-0.194211 -0.832802 -0.003158 -0.396039 -0.880710 -0.259813
-0.194211 -0.831579 -0.004442 -0.544898 -0.743191 -0.388269
-0.184737 -0.844821 -0.003158 0.068819 -0.919600 -0.386781
-0.184737 -0.831579 -0.009436 -0.556749 -0.700269 -0.446827
-0.165790 -0.836597 -0.003158 -0.152977 -0.915596 0.371863
-0.165790 -0.831579 -0.007649 -0.733511 -0.302084 0.608857
-0.156316 -0.838623 -0.003158 -0.259539 -0.964353 -0.051609
-0.156316 -0.831579 -0.006378 -0.918092 -0.351749 -0.182700
-0.146842 -0.838996 -0.003158 -0.536472 -0.838689 0.093796
-0.139180 -0.831579 -0.003158 -0.692400 -0.358735 0.626013
-0.127895 -0.842656 -0.003158 -0.756059 0.457553 -0.467996
-0.118421 -0.831579 -0.006491 -0.428330 0.549257 -0.717531
-0.122935 -0.831579 -0.003158 -0.507459 0.586401 -0.631363
0.014210 -0.835071 -0.003158 0.403766 -0.455821 0.793222
0.023684 -0.836996 -0.003158 -0.260186 -0.543822 0.797847
0.033158 -0.831579 -0.008326 0.783193 -0.327707 0.528409
0.025322 -0.831579 -0.003158 -0.089022 0.549455 0.830768
-0.364737 -0.810526 -0.003849 -0.851240 -0.491158 -0.184809
-0.366606 -0.810526 -0.003158 -0.478484 -0.162594 -0.862911
-0.364737 -0.812143 -0.003158 -0.129109 -0.981739 -0.139715
-0.359891 -0.810526 -0.003158 -0.382509 -0.866052 0.321932
-0.316739 -0.810526 -0.003158 -0.508688 -0.686119 -0.520074
-0.307895 -0.816972 -0.003158 -0.323604 -0.916746 -0.234216
-0.298421 -0.821227 -0.003158 -0.262344 -0.963393 -0.055228
-0.288947 -0.813141 -0.003158 -0.104993 -0.992588 0.061198
-0.279474 -0.816927 -0.003158 -0.183872 -0.982472 -0.030655
-0.270000 -0.816117 -0.003158 -0.139003 -0.987959 -0.067937
-0.260526 -0.819784 -0.003158 -0.142652 -0.985869 -0.087823
-0.251053 -0.819783 -0.003158 -0.090460 -0.990174 -0.106641
-0.241579 -0.828023 -0.003158 -0.202126 -0.887384 -0.414361
-0.232105 -0.830627 -0.003158 -0.092119 -0.988851 -0.116995
-0.213158 -0.830263 -0.003158 -0.363052 -0.930991 -0.038077
-0.184737 -0.810526 -0.007675 0.447005 0.675669 0.586223
-0.184737 -0.821684 -0.003158 0.113265 0.993469 0.013766
-0.191830 -0.810526 -0.003158 0.416352 0.716711 0.559443
-0.175263 -0.820354 -0.003158 0.123271 0.991745 0.035293
-0.165790 -0.824217 -0.003158 -0.116446 0.986378 0.116180
-0.156316 -0.823182 -0.003158 -0.307120 0.950619 -0.044727
-0.146842 -0.821761 -0.003158 -0.242056 0.941466 0.234628
-0.118421 -0.824774 -0.003158 -0.309656 0.757801 -0.574327
-0.111564 -0.810526 -0.003158 -0.020418 0.448009 -0.893796
-0.099474 -0.813550 -0.003158 -0.260415 0.930151 -0.258849
-0.103785 -0.810526 -0.003158 -0.208300 0.637352 0.741885
-0.097322 -0.810526 -0.003158 -0.108198 0.234019 -0.966193
0.014210 -0.829795 -0.003158 -0.178278 0.855807 0.485604
0.009809 -0.810526 -0.003158 0.100240 0.392040 0.914471
0.023684 -0.828906 -0.003158 -0.123918 0.919556 0.372909
0.042631 -0.810526 -0.007813 0.120830 0.956341 -0.266106
0.184737 -0.810526 -0.004821 0.608297 -0.768466 -0.198581
0.198261 -0.810526 -0.003158 0.008798 -0.782256 -0.622895
0.203684 -0.812619 -0.003158 -0.104430 -0.992012 -0.070751
0.213158 -0.812455 -0.003158 -0.010102 -0.999374 0.033903
0.222631 -0.810889 -0.003158 -0.039522 -0.979003 -0.199977
0.222631 -0.810526 -0.005354 -0.079425 -0.883980 -0.460728
0.232105 -0.819571 -0.003158 -0.180598 -0.983297 -0.022593
0.241579 -0.817511 -0.003158 -0.140915 -0.989152 0.041495
0.251052 -0.818244 -0.003158 -0.157338 -0.986419 -0.047148
0.260526 -0.819393 -0.003158 -0.255224 -0.926351 0.277012
0.267669 -0.810526 -0.003158 -0.209010 -0.670403 0.711951
0.288947 -0.810526 -0.004278 -0.897432 -0.440726 -0.019415
0.286561 -0.810526 -0.003158 -0.617342 -0.514394 -0.595221
0.288947 -0.812475 -0.003158 -0.438041 -0.895997 -0.072872
0.290633 -0.810526 -0.003158 -0.411188 -0.517017 0.750745
-0.364737 -0.808076 -0.003158 -0.350737 0.934035 -0.067540
-0.317368 -0.789473 -0.003193 -0.688694 -0.106820 -0.717140
-0.317440 -0.789473 -0.003158 -0.454890 -0.228307 -0.860785
-0.317368 -0.790768 -0.003158 -0.143068 -0.204601 -0.968334
-0.213158 -0.789473 -0.003393 0.447903 0.784000 0.429798
-0.213158 -0.789944 -0.003158 0.277559 0.884126 0.375876
-0.215460 -0.789473 -0.003158 0.365597 0.926993 0.083798
-0.203684 -0.807207 -0.003158 0.335975 0.842381 0.421326
-0.194211 -0.807581 -0.003158 0.414831 0.889462 0.191762
-0.118421 -0.789473 -0.009142 0.010827 0.541802 -0.840436
-0.116217 -0.789473 -0.003158 -0.187706 -0.050926 -0.980904
-0.100125 -0.789473 -0.003158 -0.112695 -0.021991 0.993386
-0.098866 -0.789473 -0.003158 -0.090075 0.051761 -0.994589
0.004737 -0.789473 -0.008332 0.606158 0.145313 0.781957
0.004737 -0.797574 -0.003158 0.234770 0.703562 0.670733
-0.000589 -0.789473 -0.003158 0.215345 0.216876 0.952151
0.203684 -0.806883 -0.003158 0.046166 0.991539 -0.121326
0.213158 -0.806370 -0.003158 -0.204374 0.978883 -0.004326
0.222631 -0.789473 -0.008233 0.167000 0.922251 -0.348660
0.222631 -0.808280 -0.003158 -0.117899 0.605919 -0.786742
0.226489 -0.789473 -0.003158 0.027939 0.841716 -0.539197
0.270000 -0.796061 -0.003158 -0.812843 -0.277706 0.512021
0.270000 -0.789473 -0.004528 -0.992137 -0.048292 0.115468
0.279473 -0.796991 -0.003158 -0.757695 -0.650933 -0.046744
0.279473 -0.789473 -0.004429 -0.984526 0.130636 0.116798
0.288947 -0.790803 -0.003158 -0.625026 -0.475560 0.619020
0.288575 -0.789473 -0.003158 -0.784912 -0.447721 0.428321
-0.318134 -0.768421 -0.003158 -0.222788 0.109288 -0.968722
-0.251053 -0.768421 -0.004583 0.507216 0.790027 0.344368
-0.251053 -0.770844 -0.003158 0.445807 0.762323 0.469169
-0.252594 -0.768421 -0.003158 0.424789 0.482790 0.765812
-0.241579 -0.768421 -0.006323 0.444332 0.836570 0.320500
-0.241579 -0.773192 -0.003158 0.223130 0.951789 0.210503
-0.232105 -0.778860 -0.003158 0.132038 0.958315 0.253372
-0.222632 -0.788011 -0.003158 0.218393 0.861017 0.459297
-0.108947 -0.776590 -0.003158 -0.326320 0.926027 -0.189709
-0.090000 -0.768421 -0.006716 -0.494538 -0.001476 -0.869155
-0.093531 -0.768421 -0.003158 -0.653687 -0.209295 -0.727247
0.004737 -0.776996 -0.003158 0.027557 -0.685197 0.727836
0.008634 -0.768421 -0.003158 -0.149030 -0.680041 0.717868
0.232105 -0.784186 -0.003158 -0.048628 0.956607 -0.287295
0.241579 -0.780177 -0.003158 -0.219629 0.942052 -0.253575
0.251052 -0.768421 -0.003273 -0.043417 0.968106 -0.246749
0.250977 -0.768421 -0.003158 -0.114218 0.791809 -0.599993
0.251152 -0.768421 -0.003158 0.006637 0.760418 0.649400
0.260526 -0.783444 -0.003158 -0.159311 0.933166 0.322213
0.270000 -0.781219 -0.003158 -0.497429 0.838834 -0.221183
0.279473 -0.775451 -0.003158 -0.153620 0.976251 0.152756
-0.355263 -0.747368 -0.008018 -0.253853 -0.966141 0.046155
-0.363334 -0.747368 -0.003158 0.117693 -0.948621 -0.293713
-0.355263 -0.749884 -0.003158 0.054047 -0.989407 0.134735
-0.350397 -0.747368 -0.003158 0.080275 -0.853348 0.515125
-0.334644 -0.747368 -0.003158 -0.111400 -0.837257 -0.535342
-0.326842 -0.753262 -0.003158 -0.094063 -0.937194 -0.335887
-0.298421 -0.754558 -0.003158 0.010694 0.995421 0.094993
-0.303514 -0.747368 -0.003158 0.055448 0.005222 0.998448
-0.288947 -0.750955 -0.003158 0.088569 0.996053 -0.005800
-0.279474 -0.754208 -0.003158 -0.021285 0.986402 0.162964
-0.270000 -0.757611 -0.003158 0.216953 0.974581 -0.055882
-0.260526 -0.752324 -0.003158 0.147891 0.932917 0.328320
-0.118153 -0.747368 -0.003158 -0.284827 -0.785494 -0.549430
-0.108947 -0.758154 -0.003158 -0.456774 -0.862813 -0.216591
-0.099474 -0.762182 -0.003158 -0.361204 -0.898511 -0.249417
-0.099474 -0.747368 -0.009254 -0.682806 -0.705362 -0.190369
0.014210 -0.759155 -0.003158 -0.136592 -0.877493 0.459727
0.023684 -0.753663 -0.003158 -0.278335 -0.942657 0.184192
0.033158 -0.750407 -0.003158 -0.032356 -0.975519 0.217522
0.042631 -0.747368 -0.004986 0.174197 -0.939030 0.296442
0.038424 -0.747368 -0.003158 -0.254699 -0.918889 0.301282
0.251052 -0.768163 -0.003158 -0.164360 0.969460 -0.182026
-0.370460 -0.726315 -0.003158 0.051543 -0.364634 -0.929723
-0.364737 -0.745090 -0.003158 0.398516 -0.613450 -0.681810
-0.345789 -0.735158 -0.003158 -0.031297 -0.998406 0.046958
-0.345789 -0.726315 -0.004866 -0.922360 -0.383888 -0.043384
-0.336316 -0.742822 -0.003158 -0.170452 -0.709741 -0.683530
-0.326842 -0.726315 -0.006400 -0.684447 -0.713807 0.148364
-0.317368 -0.726315 -0.007077 -0.766204 -0.217535 -0.604657
-0.298421 -0.733990 -0.003158 -0.123278 -0.968920 0.214466
-0.298421 -0.726315 -0.008445 -0.607052 -0.792698 0.055838
-0.288947 -0.740763 -0.003158 -0.102985 -0.955079 0.277883
-0.279474 -0.726315 -0.005505 0.277196 -0.275772 0.920387
-0.281570 -0.726315 -0.003158 -0.015453 -0.317305 0.948198
-0.127895 -0.726315 -0.004685 -0.825303 -0.227902 -0.516657
-0.133822 -0.726315 -0.003158 -0.748611 -0.573781 -0.332200
-0.127895 -0.731337 -0.003158 -0.597791 -0.714753 -0.363005
-0.118421 -0.746670 -0.003158 -0.725865 -0.508338 -0.463370
0.042631 -0.743932 -0.003158 0.018824 -0.970802 0.239143
0.052105 -0.739081 -0.003158 -0.469756 -0.869377 0.153341
0.061579 -0.737616 -0.003158 -0.604906 -0.763443 0.226372
0.069724 -0.726315 -0.003158 -0.573018 -0.659519 0.486502
0.080526 -0.726315 -0.003178 -0.822461 -0.491105 0.287008
0.080130 -0.726315 -0.003158 -0.762550 -0.640104 -0.093723
