ply
format ascii 1.0
element vertex 826
property float x
property float y
property float z
property float nx
property float ny
property float nz
end_header
-0.318048 -0.621052 -0.060000 -0.616254 -0.371080 -0.694644
-0.317368 -0.634702 -0.060000 -0.649664 -0.368118 -0.665151
-0.307895 -0.635491 -0.060000 -0.780880 -0.624624 0.008486
-0.307895 -0.621052 -0.064078 -0.884859 0.156376 0.438830
-0.298421 -0.637038 -0.060000 -0.876859 0.072716 -0.475217
-0.301215 -0.621052 -0.060000 -0.652966 -0.081579 0.752981
-0.288947 -0.621052 -0.064961 -0.964284 0.080297 -0.252407
-0.296977 -0.621052 -0.060000 -0.537106 0.150222 -0.830031
-0.279474 -0.621052 -0.062210 -0.978981 0.044399 0.199061
-0.270000 -0.621052 -0.062701 -0.995407 0.034181 -0.089420
-0.260526 -0.621052 -0.063369 -0.987854 -0.071358 -0.138031
-0.251053 -0.621052 -0.064534 -0.934579 0.237552 -0.264823
-0.222632 -0.621112 -0.060000 -0.713812 0.484449 0.505748
-0.222665 -0.621052 -0.060000 -0.326597 -0.324553 0.887693
-0.222544 -0.621052 -0.060000 -0.168741 -0.690638 -0.703239
-0.203684 -0.624651 -0.060000 -0.429886 0.871452 0.236157
-0.206473 -0.621052 -0.060000 -0.395240 -0.069902 0.915914
-0.194211 -0.627438 -0.060000 -0.409830 0.911124 0.043499
-0.184737 -0.628026 -0.060000 -0.381832 0.922151 -0.061981
-0.175263 -0.625266 -0.060000 -0.428079 0.877896 -0.214587
-0.165790 -0.621052 -0.061297 -0.788667 0.538167 -0.297290
-0.169758 -0.621052 -0.060000 -0.734390 0.475115 -0.484703
-0.156316 -0.621052 -0.063440 -0.749984 0.619044 -0.233041
-0.146842 -0.621052 -0.064188 -0.682431 0.711879 -0.165881
0.023684 -0.621052 -0.063507 0.181139 0.330356 0.926312
0.021781 -0.621052 -0.060000 0.228838 0.381751 0.895488
0.374210 -0.639621 -0.060000 -0.844675 0.461988 0.270353
-0.412105 -0.616542 -0.060000 0.683226 -0.440882 0.582087
-0.393158 -0.599999 -0.063776 -0.761532 0.162766 -0.627357
-0.397461 -0.599999 -0.060000 -0.452189 0.420766 -0.786436
-0.393158 -0.606367 -0.060000 -0.409340 -0.877707 -0.249141
-0.383684 -0.608156 -0.060000 -0.390135 -0.920462 -0.023341
-0.374211 -0.608163 -0.060000 -0.543194 -0.839244 0.024709
-0.374211 -0.599999 -0.063110 -0.700779 0.633826 0.327373
-0.365302 -0.599999 -0.060000 -0.892897 0.019333 0.449847
-0.317368 -0.599999 -0.065749 -0.668071 0.588326 -0.455581
-0.319806 -0.599999 -0.060000 -0.787633 0.059468 -0.613268
-0.307895 -0.599999 -0.061666 -0.757181 0.238978 0.607920
-0.305509 -0.599999 -0.060000 -0.719149 0.237186 0.653122
-0.288947 -0.599999 -0.063735 -0.918611 0.280543 -0.278299
-0.293229 -0.599999 -0.060000 -0.607290 0.140853 -0.781895
-0.279474 -0.599999 -0.060509 -0.994087 -0.108068 0.010580
-0.270000 -0.599999 -0.063116 -0.925095 0.022618 -0.379060
-0.260526 -0.599999 -0.065986 -0.993231 0.049235 -0.105206
-0.251053 -0.599999 -0.064661 -0.982341 -0.133634 -0.130949
-0.232105 -0.599999 -0.065771 -0.959744 0.144288 0.240982
-0.222632 -0.620973 -0.060000 -0.003278 -0.919164 0.393860
-0.222632 -0.599999 -0.064573 -0.947239 -0.303244 -0.103833
-0.203684 -0.618600 -0.060000 -0.196996 -0.942625 0.269536
-0.194211 -0.614736 -0.060000 -0.375891 -0.909936 0.175280
-0.184737 -0.611131 -0.060000 -0.408551 -0.902485 0.136408
-0.175263 -0.604122 -0.060000 -0.511626 -0.822232 0.249347
-0.175263 -0.599999 -0.061072 -0.953014 -0.206702 0.221448
-0.165790 -0.599999 -0.062208 -0.901905 0.320507 -0.289557
-0.156316 -0.599999 -0.064369 -0.989540 0.041320 -0.138213
-0.146842 -0.599999 -0.064452 -0.917502 -0.005291 -0.397696
0.023684 -0.599999 -0.065361 0.231986 0.179255 0.956060
0.020268 -0.599999 -0.060000 0.235417 0.084272 0.968234
-0.393158 -0.595038 -0.060000 -0.351633 0.919825 -0.174002
-0.383684 -0.593911 -0.060000 -0.287621 0.957552 -0.019181
-0.374211 -0.593560 -0.060000 -0.580875 0.812728 0.045348
-0.317368 -0.578947 -0.060286 -0.875820 0.309982 -0.369934
-0.317923 -0.578947 -0.060000 -0.732626 0.311228 -0.605307
-0.307895 -0.578947 -0.060046 -0.942008 0.284818 0.177483
-0.307731 -0.578947 -0.060000 -0.901183 0.119135 0.416744
-0.288947 -0.578947 -0.062283 -0.805010 0.318338 -0.500620
-0.292305 -0.578947 -0.060000 -0.810826 0.120954 -0.572652
-0.279474 -0.578947 -0.063635 -0.895239 0.443508 -0.042988
-0.270000 -0.578947 -0.063088 -0.987239 -0.000856 -0.159246
-0.260526 -0.578947 -0.065262 -0.973454 0.217798 -0.070370
-0.251053 -0.578947 -0.064249 -0.987179 0.078155 -0.139175
-0.232105 -0.578947 -0.064918 -0.993251 -0.096815 -0.063864
-0.203684 -0.578947 -0.065560 -0.927475 0.211822 0.308093
-0.194211 -0.578947 -0.066100 -0.778999 0.609959 0.145295
-0.184737 -0.578947 -0.062266 -0.649873 0.495695 0.576153
-0.181751 -0.578947 -0.060000 -0.620637 0.527934 0.579737
-0.175263 -0.596077 -0.060000 -0.606755 0.679590 0.412318
-0.165790 -0.594161 -0.060000 -0.443041 0.781897 -0.438580
-0.156316 -0.579189 -0.060000 -0.389937 0.876582 -0.282052
-0.146842 -0.580433 -0.060000 -0.267626 0.913831 -0.305434
-0.146183 -0.578947 -0.060000 -0.194141 0.878199 -0.437122
0.020335 -0.578947 -0.060000 -0.236823 -0.042422 0.970626
0.137368 -0.578947 -0.061909 -0.299222 -0.774413 -0.557450
0.136137 -0.578947 -0.060000 -0.266849 -0.440658 -0.857095
0.137368 -0.581786 -0.060000 -0.097150 -0.874770 -0.474699
0.146842 -0.586600 -0.060000 -0.033249 -0.854899 0.517729
0.150551 -0.578947 -0.060000 0.037834 -0.381215 0.923712
-0.317368 -0.576913 -0.060000 -0.773338 0.504068 -0.384530
-0.307895 -0.578627 -0.060000 -0.886686 0.405644 0.221902
-0.288947 -0.569145 -0.060000 -0.912304 0.313361 -0.263640
-0.279474 -0.557894 -0.060305 -0.872318 0.428137 -0.236138
-0.281096 -0.557894 -0.060000 -0.802555 0.528792 -0.276196
-0.270000 -0.557894 -0.061674 -0.799107 0.573494 -0.180368
-0.260526 -0.557894 -0.063146 -0.886456 0.437605 -0.150661
-0.251053 -0.557894 -0.063441 -0.874055 0.485708 -0.010798
-0.241579 -0.557894 -0.063131 -0.978344 0.198499 -0.058663
-0.232105 -0.557894 -0.064765 -0.860388 0.489641 -0.141365
-0.222632 -0.557894 -0.064950 -0.963751 0.260023 -0.059773
-0.213158 -0.557894 -0.065788 -0.892584 0.449894 0.029810
-0.203684 -0.557894 -0.064109 -0.887955 0.420524 0.186267
-0.194211 -0.557894 -0.063284 -0.932749 0.284903 0.220928
-0.184737 -0.557894 -0.060262 -0.713143 0.226610 0.663381
-0.184512 -0.557894 -0.060000 -0.379344 0.402816 0.832969
-0.137369 -0.566885 -0.060000 -0.048533 0.890008 -0.453354
-0.127895 -0.561192 -0.060000 -0.166702 0.885938 -0.432810
-0.125186 -0.557894 -0.060000 -0.045200 0.671896 -0.739265
0.021603 -0.557894 -0.060000 -0.156829 0.139563 0.977715
0.118421 -0.557894 -0.060306 -0.417775 -0.828527 -0.372838
0.117995 -0.557894 -0.060000 -0.383144 -0.738960 -0.554201
0.118421 -0.558939 -0.060000 -0.131091 -0.889573 -0.437578
0.127895 -0.563585 -0.060000 -0.344611 -0.818300 -0.460030
0.146842 -0.557894 -0.066288 -0.379058 -0.924029 0.049852
0.156316 -0.560017 -0.060000 0.164829 -0.490005 0.855995
0.158051 -0.557894 -0.060000 -0.126386 -0.725107 0.676939
-0.279474 -0.556357 -0.060000 -0.769581 0.611717 -0.183160
-0.270000 -0.553138 -0.060000 -0.661043 0.732003 -0.164904
-0.260526 -0.545276 -0.060000 -0.729361 0.672736 -0.124333
-0.251053 -0.544449 -0.060000 -0.768698 0.632976 -0.091893
-0.241579 -0.539658 -0.060000 -0.740205 0.667189 -0.083404
-0.232105 -0.538296 -0.060000 -0.796465 0.595308 -0.106076
-0.222632 -0.536842 -0.060989 -0.906879 0.395479 -0.145492
-0.229237 -0.536842 -0.060000 -0.952306 0.224335 -0.206849
-0.213158 -0.536842 -0.061449 -0.926518 0.376107 -0.010368
-0.203684 -0.536842 -0.061107 -0.934920 0.350227 0.057145
-0.194211 -0.536842 -0.060582 -0.966080 0.157906 0.204340
-0.191519 -0.536842 -0.060000 -0.931110 0.137779 0.337714
-0.184737 -0.555276 -0.060000 -0.573611 0.194836 0.795619
-0.118421 -0.536842 -0.063758 -0.019593 0.349714 -0.936652
-0.119295 -0.536842 -0.060000 0.094823 0.483945 -0.869946
0.014210 -0.536842 -0.064846 -0.676607 0.078210 0.732179
0.018066 -0.536842 -0.060000 -0.290087 0.105857 0.951127
0.109843 -0.536842 -0.060000 -0.107417 -0.364334 -0.925053
0.165789 -0.537061 -0.060000 -0.236091 -0.587324 0.774152
0.165789 -0.536842 -0.060066 -0.459910 -0.314779 0.830299
0.165842 -0.536842 -0.060000 -0.326036 -0.403222 0.855051
-0.222632 -0.515789 -0.061465 -0.954985 0.282535 -0.090430
-0.230691 -0.515789 -0.060000 -0.895371 0.238068 -0.376343
-0.213158 -0.515789 -0.060281 -0.941297 0.301628 0.151594
-0.203684 -0.515789 -0.060197 -0.966236 0.256840 -0.020520
-0.194211 -0.515789 -0.060897 -0.980102 0.192957 -0.046562
-0.185268 -0.515789 -0.060000 -0.982915 0.091953 0.159449
-0.156316 -0.515789 -0.063299 0.835117 -0.496927 -0.235886
-0.146842 -0.515789 -0.063091 0.814892 -0.577828 -0.045459
-0.137369 -0.515789 -0.062625 0.898599 -0.434592 0.060413
-0.127895 -0.515789 -0.063806 0.973229 -0.169691 0.155019
-0.118421 -0.533315 -0.060000 -0.028982 0.492428 -0.869870
-0.118421 -0.515789 -0.066087 0.823561 -0.499003 0.269708
-0.113431 -0.515789 -0.060000 0.371555 0.570438 -0.732494
-0.033158 -0.515789 -0.066210 -0.971372 0.237450 -0.007306
-0.014211 -0.515789 -0.065542 -0.919429 0.346538 0.185909
-0.004737 -0.515789 -0.065403 -0.915582 0.402031 -0.009031
0.004737 -0.515789 -0.065787 -0.940902 0.269364 -0.205296
0.021481 -0.515789 -0.060000 -0.459049 -0.038987 0.887555
0.110428 -0.515789 -0.060000 -0.138674 -0.101150 -0.985159
0.165789 -0.515789 -0.061456 -0.537469 -0.401324 0.741665
0.167449 -0.515789 -0.060000 -0.120343 -0.330134 0.936231
-0.222632 -0.508141 -0.060000 -0.756720 0.649364 0.075506
-0.213158 -0.514684 -0.060000 -0.740036 0.668694 0.072073
-0.203684 -0.514215 -0.060000 -0.900766 0.429344 -0.065452
-0.194211 -0.508043 -0.060000 -0.911452 0.409892 0.035263
-0.165790 -0.494736 -0.061937 0.041168 -0.782819 -0.620886
-0.167874 -0.494736 -0.060000 -0.674097 -0.407341 -0.616172
-0.165790 -0.498539 -0.060000 0.307955 -0.950928 -0.030012
-0.158737 -0.494736 -0.060000 0.177439 -0.969120 0.171237
-0.156316 -0.494736 -0.060280 0.686789 -0.724406 -0.059640
-0.154079 -0.494736 -0.060000 0.623067 -0.773866 -0.113661
-0.146842 -0.498093 -0.060000 0.909988 -0.362979 0.200418
-0.144990 -0.494736 -0.060000 0.717084 -0.605181 0.345755
-0.137369 -0.494736 -0.061729 0.850974 -0.407514 0.331325
-0.127895 -0.494736 -0.064305 0.887917 -0.400179 0.226850
-0.118421 -0.494736 -0.064702 0.939336 -0.338852 0.053178
-0.108947 -0.503243 -0.060000 0.413234 0.483415 -0.771717
-0.108947 -0.494736 -0.063695 0.856405 -0.298572 -0.421219
-0.106697 -0.494736 -0.060000 0.323712 -0.087197 -0.942129
-0.080526 -0.494736 -0.065511 -0.880786 0.419038 0.220505
-0.071053 -0.494736 -0.066047 -0.870096 0.489464 0.057948
-0.061579 -0.494736 -0.064789 -0.860123 0.504035 0.078338
-0.052105 -0.494736 -0.064681 -0.860345 0.505348 0.066560
-0.042632 -0.494736 -0.063815 -0.830310 0.557256 -0.007091
-0.033158 -0.494736 -0.064431 -0.863692 0.500287 -0.061237
-0.023684 -0.494736 -0.064945 -0.849216 0.506034 0.150870
-0.014211 -0.494736 -0.060607 -0.909802 0.395928 0.124508
-0.004737 -0.494736 -0.062773 -0.801979 0.587824 -0.106270
0.004737 -0.494736 -0.062407 -0.834063 0.550701 0.032668
0.014210 -0.494736 -0.062370 -0.745988 0.638886 0.187954
0.018321 -0.494736 -0.060000 -0.576804 0.479715 0.661189
0.108947 -0.494736 -0.062919 -0.551028 -0.119559 -0.825877
0.105811 -0.494736 -0.060000 -0.281931 -0.102009 -0.953996
0.108947 -0.507189 -0.060000 -0.083790 -0.364008 -0.927619
0.165789 -0.494736 -0.066285 -0.600391 -0.294488 0.743511
0.172008 -0.494736 -0.060000 -0.246856 -0.432928 0.866969
-0.171876 -0.473684 -0.060000 -0.308851 0.116009 -0.944009
-0.156316 -0.494098 -0.060000 0.433988 -0.900796 -0.014860
-0.137369 -0.487271 -0.060000 0.658139 -0.647276 0.384561
-0.127895 -0.475597 -0.060000 0.747386 -0.660558 0.071259
-0.118421 -0.478556 -0.060000 0.751714 -0.652393 -0.096484
-0.108947 -0.483261 -0.060000 0.738859 -0.506218 -0.444781
-0.080526 -0.473684 -0.063180 -0.974583 0.080759 0.208963
-0.071053 -0.473684 -0.062981 -0.992635 0.109153 0.052553
-0.061579 -0.473684 -0.062542 -0.964265 0.163728 0.208295
-0.052105 -0.473684 -0.060070 -0.951162 0.193880 0.240211
-0.051518 -0.473684 -0.060000 -0.880022 0.442460 0.172600
-0.042632 -0.477725 -0.060000 -0.784909 0.587176 -0.197846
-0.033158 -0.473684 -0.061225 -0.958842 0.271747 -0.082316
-0.039738 -0.473684 -0.060000 -0.824904 0.284097 -0.488694
-0.023684 -0.473684 -0.060089 -0.999300 -0.029144 0.023444
-0.014211 -0.473684 -0.061173 -0.990887 0.116865 -0.066970
-0.004737 -0.473684 -0.061035 -0.983717 -0.177899 0.025545
0.004737 -0.473684 -0.060851 -0.872099 0.267934 0.409457
0.006538 -0.473684 -0.060000 -0.547471 0.320899 0.772852
0.014210 -0.487501 -0.060000 -0.457242 0.763905 0.455388
0.108947 -0.473684 -0.063568 -0.469235 -0.181430 -0.864235
0.106483 -0.473684 -0.060000 -0.003004 -0.113060 -0.993584
0.175263 -0.483558 -0.060000 -0.314185 -0.459945 0.830505
0.175263 -0.473684 -0.062510 -0.642471 -0.019625 0.766059
0.177911 -0.473684 -0.060000 -0.094770 -0.219612 0.970973
-0.165790 -0.452631 -0.063878 -0.234722 -0.052854 -0.970625
-0.167388 -0.452631 -0.060000 -0.246016 -0.193597 -0.949735
-0.080526 -0.452631 -0.064567 -0.272538 -0.874988 0.400148
-0.071053 -0.452631 -0.064846 -0.910893 -0.382957 0.153679
-0.061579 -0.452631 -0.063118 -0.970907 0.194700 0.139397
-0.052105 -0.452631 -0.062446 -0.802348 0.509991 0.310076
-0.048373 -0.452631 -0.060000 -0.740348 0.418240 0.526271
-0.033158 -0.452631 -0.061955 -0.962301 0.131710 -0.237969
-0.039419 -0.452631 -0.060000 -0.618171 0.294944 -0.728610
-0.023684 -0.452631 -0.062354 -0.983787 0.164997 -0.070274
-0.014211 -0.452631 -0.062954 -0.955948 0.278074 -0.094011
-0.004737 -0.452631 -0.063618 -0.932015 0.361547 0.025127
0.004737 -0.452631 -0.060290 -0.887662 0.227256 0.400513
0.014210 -0.453766 -0.060000 -0.731858 -0.356705 0.580642
0.014210 -0.452631 -0.060265 -0.694182 0.678850 0.239321
0.014654 -0.452631 -0.060000 -0.553583 0.211349 0.805529
0.108947 -0.452631 -0.063960 -0.483454 0.448314 -0.751855
0.105068 -0.452631 -0.060000 -0.141874 0.371631 -0.917476
0.175263 -0.452631 -0.061011 -0.558544 -0.321458 0.764652
0.176613 -0.452631 -0.060000 -0.365459 -0.455128 0.811972
-0.170748 -0.431578 -0.060000 -0.076839 -0.015586 -0.996922
-0.071053 -0.431578 -0.062873 0.234560 -0.759573 0.606655
-0.071053 -0.438931 -0.060000 -0.109888 0.230974 0.966735
-0.072381 -0.431578 -0.060000 0.105291 -0.812160 0.573855
-0.061579 -0.443951 -0.060000 -0.536788 0.830164 0.150617
-0.052105 -0.448368 -0.060000 -0.625508 0.735409 0.260602
-0.033158 -0.442947 -0.060000 -0.585042 0.769167 -0.257115
-0.023684 -0.439759 -0.060000 -0.604636 0.796128 0.024388
-0.014211 -0.441482 -0.060000 -0.653415 0.755999 -0.038911
-0.004737 -0.438679 -0.060000 -0.416380 0.862114 0.288767
0.004737 -0.451988 -0.060000 -0.246954 0.948004 0.200751
0.014210 -0.452167 -0.060000 -0.193526 0.944574 0.265193
0.108947 -0.438007 -0.060000 -0.374136 0.241201 -0.895458
0.110356 -0.431578 -0.060000 -0.412205 -0.173944 -0.894332
0.175263 -0.431578 -0.063779 -0.600517 0.057473 0.797544
0.179624 -0.431578 -0.060000 -0.274071 -0.082262 0.958185
-0.165790 -0.410526 -0.061878 -0.406006 0.513390 -0.756035
-0.167011 -0.410526 -0.060000 -0.315340 0.447050 -0.837082
-0.071053 -0.430057 -0.060000 0.092305 -0.944610 0.314946
-0.061579 -0.419462 -0.060000 -0.015174 -0.878269 0.477927
-0.052105 -0.412195 -0.060000 0.034713 -0.785958 0.617305
-0.052105 -0.410526 -0.060818 -0.479121 0.132911 0.867628
-0.051422 -0.410526 -0.060000 -0.047050 0.246422 0.968020
0.108947 -0.410526 -0.060799 -0.689292 0.147324 -0.709346
0.107702 -0.410526 -0.060000 -0.293843 0.144243 -0.944908
0.108947 -0.420561 -0.060000 -0.321365 -0.209535 -0.923482
0.175263 -0.410526 -0.062249 -0.746864 0.061864 0.662093
0.180080 -0.410526 -0.060000 -0.489917 0.031060 0.871216
-0.165790 -0.407556 -0.060000 -0.273542 0.690454 -0.669662
-0.156316 -0.389473 -0.060819 -0.356878 0.470339 -0.807105
-0.157072 -0.389473 -0.060000 -0.530601 0.426206 -0.732674
-0.052105 -0.407721 -0.060000 -0.052894 0.576985 0.815040
-0.055997 -0.389473 -0.060000 -0.236158 0.659554 0.713595
0.108947 -0.404644 -0.060000 -0.569451 0.337714 -0.749449
0.118421 -0.389473 -0.064782 -0.644311 0.179869 -0.743310
0.111787 -0.389473 -0.060000 -0.465153 0.329908 -0.821458
0.175263 -0.389473 -0.061612 -0.600368 -0.035331 0.798943
0.177907 -0.389473 -0.060000 -0.640127 0.113057 0.759905
-0.156316 -0.382683 -0.060000 -0.499365 0.209890 -0.840584
-0.154905 -0.368420 -0.060000 -0.500930 0.611330 -0.612653
-0.080526 -0.368420 -0.064210 -0.334747 0.880147 0.336579
-0.071053 -0.368420 -0.060222 -0.224412 0.949098 0.221025
-0.070871 -0.368420 -0.060000 -0.363762 0.834176 0.414521
-0.061579 -0.381531 -0.060000 -0.203290 0.756937 0.621064
0.118421 -0.368420 -0.060353 -0.462344 0.571663 -0.677819
0.118120 -0.368420 -0.060000 -0.459531 0.439304 -0.771909
0.175263 -0.368420 -0.061987 -0.658925 0.320894 0.680328
0.178154 -0.368420 -0.060000 -0.472228 0.235656 0.849392
-0.146842 -0.358498 -0.060000 -0.370880 0.817167 -0.441232
-0.137369 -0.347368 -0.060055 -0.291257 0.753599 -0.589286
-0.137419 -0.347368 -0.060000 -0.462589 0.736341 -0.493775
-0.099474 -0.347368 -0.065803 -0.581051 0.769792 0.264199
-0.090000 -0.347368 -0.064438 -0.452758 0.830396 0.324735
-0.086517 -0.347368 -0.060000 -0.676787 0.639893 0.364000
-0.080526 -0.358352 -0.060000 -0.533160 0.684967 0.496549
-0.071053 -0.368266 -0.060000 -0.312063 0.902510 0.296803
0.118421 -0.367119 -0.060000 -0.474381 0.403501 -0.782400
0.127895 -0.348445 -0.060000 -0.562421 0.580409 -0.588904
0.128436 -0.347368 -0.060000 -0.556440 0.465800 -0.688044
0.165789 -0.347368 -0.062847 -0.603530 0.379862 0.701040
0.169596 -0.347368 -0.060000 -0.445944 0.626366 0.639374
0.175263 -0.359804 -0.060000 -0.342522 0.607029 0.717074
-0.137369 -0.347277 -0.060000 -0.443961 0.610566 -0.655826
-0.127895 -0.326315 -0.060191 -0.525574 0.779433 -0.340964
-0.128161 -0.326315 -0.060000 -0.441624 0.734194 -0.515681
-0.118421 -0.326315 -0.060558 -0.551407 0.834118 0.014035
-0.114118 -0.326315 -0.060000 -0.557965 0.820967 0.121193
-0.108947 -0.328075 -0.060000 -0.578806 0.799332 0.161409
-0.099474 -0.333639 -0.060000 -0.630801 0.741924 0.227242
-0.090000 -0.342470 -0.060000 -0.692005 0.606037 0.392235
0.137368 -0.326315 -0.060360 -0.806701 0.364458 -0.465191
0.136566 -0.326315 -0.060000 -0.810187 0.336692 -0.479828
0.146842 -0.326315 -0.063806 -0.752883 0.624827 -0.206780
0.156316 -0.326315 -0.063262 -0.740802 0.631270 0.229589
0.161627 -0.326315 -0.060000 -0.594516 0.577855 0.559137
0.165789 -0.336680 -0.060000 -0.437343 0.591578 0.677323
-0.127895 -0.325998 -0.060000 -0.429972 0.884846 -0.179366
-0.118421 -0.325152 -0.060000 -0.492929 0.868869 0.045679
0.137368 -0.321097 -0.060000 -0.767639 0.267250 -0.582501
0.146842 -0.305262 -0.061665 -0.979262 0.198685 -0.039628
0.140348 -0.305262 -0.060000 -0.875882 0.184688 -0.445782
0.155739 -0.305262 -0.060000 -0.909032 0.260050 0.325630
0.156316 -0.306269 -0.060000 -0.733401 0.375622 0.566596
0.146842 -0.284210 -0.061564 -0.883846 0.443070 -0.150016
0.142940 -0.284210 -0.060000 -0.780312 0.381204 -0.495779
0.151464 -0.284210 -0.060000 -0.852479 0.324060 0.410200
0.146842 -0.278277 -0.060000 -0.798028 0.596289 0.087122
-0.071053 -0.178946 -0.060522 -0.785166 -0.595084 -0.171433
-0.074329 -0.178946 -0.060000 -0.855995 -0.476115 -0.201460
-0.071053 -0.182664 -0.060000 -0.849596 -0.499027 -0.170762
-0.061579 -0.185865 -0.060000 -0.839708 -0.542532 -0.023463
-0.061579 -0.178946 -0.061892 -0.755994 -0.654345 -0.017477
-0.052105 -0.183759 -0.060000 -0.748751 -0.655463 0.098689
-0.052105 -0.178946 -0.061236 -0.604168 -0.793804 0.069694
-0.042632 -0.179601 -0.060000 -0.736458 -0.668464 0.103854
-0.042632 -0.178946 -0.060300 -0.568664 -0.814907 0.112016
-0.040573 -0.178946 -0.060000 -0.655651 -0.749453 0.091875
-0.080526 -0.157894 -0.061121 -0.642850 -0.473830 -0.601854
-0.082447 -0.157894 -0.060000 -0.628067 -0.267746 -0.730646
-0.080526 -0.169208 -0.060000 -0.717870 -0.319900 -0.618325
-0.033158 -0.177500 -0.060000 -0.501660 -0.857582 0.113531
-0.023684 -0.171849 -0.060000 -0.465208 -0.809301 0.358626
-0.014892 -0.157894 -0.060000 -0.438541 -0.657015 0.613199
-0.080526 -0.136841 -0.063880 -0.713154 -0.070110 -0.697493
-0.085286 -0.136841 -0.060000 -0.571730 -0.130881 -0.809935
-0.014211 -0.155534 -0.060000 -0.508811 -0.524111 0.682949
-0.006888 -0.136841 -0.060000 -0.360861 -0.701352 0.614723
-0.080526 -0.115788 -0.064087 -0.709764 -0.147680 -0.688785
-0.086902 -0.115788 -0.060000 -0.621351 0.009584 -0.783473
-0.004737 -0.133686 -0.060000 -0.383800 -0.843441 0.375905
0.004737 -0.128444 -0.060000 -0.367024 -0.822168 0.435123
0.004737 -0.115788 -0.064665 -0.487220 -0.778389 0.395888
0.011424 -0.115788 -0.060000 -0.514310 -0.674179 0.530065
-0.080526 -0.094736 -0.063141 -0.673487 -0.230519 -0.702336
-0.085816 -0.094736 -0.060000 -0.694592 -0.271070 -0.666380
0.014210 -0.111355 -0.060000 -0.433643 -0.744237 0.508002
0.023684 -0.097529 -0.060000 -0.410866 -0.745735 0.524469
0.023684 -0.094736 -0.061811 -0.354553 -0.709126 0.609453
0.025164 -0.094736 -0.060000 -0.459036 -0.664762 0.589387
-0.090000 -0.073683 -0.060364 -0.717140 -0.307232 -0.625555
-0.090793 -0.073683 -0.060000 -0.574083 -0.299024 -0.762243
-0.090000 -0.077887 -0.060000 -0.446902 -0.513096 -0.732811
0.032720 -0.073683 -0.060000 -0.351856 -0.694059 0.628076
-0.090000 -0.052630 -0.060400 -0.577658 -0.129786 -0.805895
-0.090584 -0.052630 -0.060000 -0.496116 -0.027160 -0.867831
0.033158 -0.073056 -0.060000 -0.236655 -0.829451 0.505969
0.042631 -0.060395 -0.060000 -0.103756 -0.903229 0.416427
0.052105 -0.053926 -0.060000 -0.324501 -0.802995 0.499898
0.052105 -0.052630 -0.063749 -0.129103 -0.748278 0.650701
0.052644 -0.052630 -0.060000 -0.190107 -0.672774 0.715006
-0.090000 -0.031578 -0.062123 -0.541189 -0.121267 -0.832111
-0.092402 -0.031578 -0.060000 -0.421220 -0.137679 -0.896447
0.061579 -0.040188 -0.060000 -0.245141 -0.865679 0.436469
0.070383 -0.031578 -0.060000 -0.271266 -0.868943 0.413947
-0.090000 -0.010525 -0.063887 -0.571465 0.117670 -0.812146
-0.094418 -0.010525 -0.060000 -0.454743 0.031160 -0.890077
0.071052 -0.030759 -0.060000 -0.355199 -0.812033 0.463072
0.080526 -0.017428 -0.060000 0.003632 -0.915054 0.403315
0.090000 -0.015587 -0.060000 -0.258357 -0.912648 0.316742
0.090000 -0.010525 -0.064910 -0.217484 -0.902563 0.371591
0.092690 -0.010525 -0.060000 -0.069038 -0.840997 0.536617
0.127895 -0.010525 -0.060806 -0.520032 -0.797816 -0.305051
0.125890 -0.010525 -0.060000 -0.387615 -0.854752 -0.345186
0.127895 -0.013685 -0.060000 -0.480427 -0.731465 -0.483889
0.137368 -0.025629 -0.060000 -0.673670 -0.679035 -0.291685
0.137368 -0.010525 -0.064776 -0.528419 -0.843298 -0.098089
0.146842 -0.025969 -0.060000 -0.827977 -0.547683 0.120405
0.146842 -0.010525 -0.063678 -0.359242 -0.932319 -0.041561
0.156316 -0.018080 -0.060000 -0.772455 -0.626656 0.103032
0.165789 -0.017481 -0.060000 -0.624140 -0.776835 0.083524
0.165789 -0.010525 -0.062446 -0.442577 -0.887226 0.130215
0.175263 -0.011584 -0.060000 -0.695342 -0.616677 0.369065
0.175263 -0.010525 -0.060609 -0.440889 -0.818650 0.368007
0.175945 -0.010525 -0.060000 -0.531535 -0.684369 0.499109
-0.090000 0.010528 -0.061074 -0.476376 0.053319 -0.877623
-0.091500 0.010528 -0.060000 -0.549329 0.143969 -0.823110
0.099474 -0.004865 -0.060000 -0.145255 -0.975793 0.163488
0.108947 -0.007032 -0.060000 -0.189265 -0.981155 -0.038903
0.118421 -0.006041 -0.060000 -0.228624 -0.967571 -0.107415
0.184737 -0.000646 -0.060000 -0.377941 -0.858272 0.347173
0.184737 0.010528 -0.066277 -0.479230 -0.831652 0.280523
0.194210 0.004723 -0.060000 -0.464268 -0.815639 0.345238
0.194210 0.010528 -0.064266 -0.449679 -0.812350 0.371316
0.198631 0.010528 -0.060000 -0.433671 -0.720068 0.541693
-0.090000 0.031580 -0.060585 -0.482971 0.224523 -0.846362
-0.090566 0.031580 -0.060000 -0.289290 0.313741 -0.904366
0.203684 0.020283 -0.060000 -0.446520 -0.684667 0.576065
0.203684 0.031580 -0.066081 -0.393170 -0.683858 0.614618
0.209862 0.031580 -0.060000 -0.495290 -0.597259 0.630848
-0.090000 0.034165 -0.060000 -0.408514 0.408958 -0.816008
-0.085482 0.052633 -0.060000 -0.345631 0.096558 -0.933389
0.213158 0.043525 -0.060000 -0.429236 -0.422474 0.798293
0.213158 0.052633 -0.062252 -0.478139 0.030606 0.877751
0.215016 0.052633 -0.060000 -0.348009 0.048096 0.936257
-0.087882 0.073686 -0.060000 -0.215043 -0.151510 -0.964780
0.213158 0.062528 -0.060000 -0.459767 0.260610 0.848938
0.211285 0.073686 -0.060000 -0.356910 0.072997 0.931282
-0.080526 0.094738 -0.066055 -0.657443 -0.027567 -0.753000
-0.089626 0.094738 -0.060000 -0.613704 -0.202138 -0.763222
0.211916 0.094738 -0.060000 -0.347594 0.010961 0.937581
-0.094887 0.115791 -0.060000 -0.082520 -0.112892 -0.990175
-0.090000 0.095573 -0.060000 -0.416268 -0.582155 -0.698438
0.203684 0.115791 -0.065090 -0.574862 0.380084 0.724617
0.209064 0.115791 -0.060000 -0.443216 0.519009 0.730882
-0.090000 0.134020 -0.060000 -0.134903 0.961560 -0.239175
-0.080526 0.132945 -0.060000 -0.542760 0.816491 -0.196859
-0.071053 0.136844 -0.061666 -0.753004 0.326818 -0.571117
-0.076185 0.136844 -0.060000 -0.741010 0.304468 -0.598500
0.203684 0.128228 -0.060000 -0.320036 0.564709 0.760711
0.201345 0.136844 -0.060000 -0.356565 0.429818 0.829529
-0.099474 0.157896 -0.060104 -0.714145 -0.374278 -0.591535
-0.099594 0.157896 -0.060000 -0.505840 -0.236839 -0.829477
-0.099474 0.156904 -0.060000 -0.337370 -0.274457 -0.900475
-0.090000 0.139529 -0.060000 -0.380074 -0.909132 -0.170360
-0.090000 0.157896 -0.064622 -0.877717 -0.298972 -0.374471
-0.080526 0.142766 -0.060000 -0.533581 -0.840738 -0.091927
-0.080526 0.157896 -0.065670 -0.944045 -0.302602 0.131187
-0.071053 0.157896 -0.063492 -0.891253 -0.186426 -0.413418
0.194210 0.157896 -0.062755 -0.450647 0.206583 0.868470
0.197687 0.157896 -0.060000 -0.617384 0.399907 0.677430
-0.105251 0.178949 -0.060000 -0.213650 -0.346287 -0.913476
-0.090000 0.178949 -0.063985 -0.952066 -0.293898 0.084822
-0.071053 0.178949 -0.065503 -0.999461 0.032598 0.003793
0.184737 0.178949 -0.065710 -0.326382 0.603891 0.727179
0.192772 0.178949 -0.060000 -0.342411 0.917974 0.200195
0.194210 0.176071 -0.060000 -0.348692 0.740261 0.574828
-0.099474 0.200001 -0.061091 -0.861030 -0.237540 -0.449670
-0.102117 0.200001 -0.060000 -0.778936 -0.259037 -0.571103
-0.090000 0.200001 -0.064074 -0.999527 0.030761 -0.000410
-0.080526 0.200001 -0.062406 -0.994574 -0.103983 -0.003062
-0.071053 0.200001 -0.066044 -0.999967 -0.007913 0.001895
-0.061579 0.200001 -0.060874 -0.966209 0.200012 0.162590
-0.052105 0.200001 -0.062829 -0.815965 0.311959 -0.486706
0.175263 0.200001 -0.063966 -0.497588 0.733956 0.462292
0.181865 0.200001 -0.060000 -0.444550 0.764012 0.467612
0.184737 0.190442 -0.060000 -0.426552 0.638124 0.640977
-0.108947 0.221054 -0.062019 -0.820258 0.040560 -0.570553
-0.111284 0.221054 -0.060000 -0.193759 0.135339 -0.971669
-0.108947 0.208898 -0.060000 -0.451141 -0.478275 -0.753475
-0.099474 0.221054 -0.064959 -0.933429 -0.024404 -0.357931
-0.090000 0.221054 -0.066298 -0.980157 -0.195301 0.033917
-0.080526 0.221054 -0.064622 -0.986622 -0.014738 -0.162358
-0.061579 0.221054 -0.064916 -0.744878 -0.421988 0.516800
-0.052105 0.221054 -0.063177 -0.952363 0.225522 -0.205290
-0.042632 0.221054 -0.065211 -0.843170 0.251866 -0.475003
0.156316 0.221054 -0.062398 -0.606025 0.708377 0.361850
0.165789 0.221054 -0.060675 -0.633097 0.726748 0.266506
0.167171 0.221054 -0.060000 -0.512149 0.649964 0.561472
0.175263 0.207641 -0.060000 -0.376471 0.781672 0.497251
-0.108947 0.238803 -0.060000 -0.709055 -0.093264 -0.698959
-0.099474 0.242107 -0.063601 -0.841267 0.323497 -0.433151
-0.107880 0.242107 -0.060000 -0.680445 0.038759 -0.731773
-0.090000 0.242107 -0.066142 -0.901634 0.422173 0.093952
-0.080526 0.242107 -0.061580 -0.950025 0.273302 0.150859
-0.071053 0.242107 -0.063210 -0.895444 0.337294 -0.290538
-0.052105 0.237885 -0.060000 -0.580711 0.787741 0.205522
-0.054068 0.242107 -0.060000 -0.530661 0.124206 0.838434
-0.042632 0.239182 -0.060000 -0.367093 0.828489 -0.422904
-0.040975 0.242107 -0.060000 -0.341266 0.611964 -0.713469
0.146842 0.242107 -0.066172 -0.528797 0.348190 0.774040
0.152013 0.242107 -0.060000 -0.695117 0.398970 0.598026
0.156316 0.233057 -0.060000 -0.738602 0.561488 0.373094
0.165789 0.224221 -0.060000 -0.655134 0.612154 0.442795
-0.099474 0.263160 -0.060138 -0.986883 0.142576 -0.075718
-0.104020 0.263160 -0.060000 -0.991666 0.116578 -0.054836
-0.090000 0.263160 -0.061268 -0.959090 0.282713 -0.014815
-0.080526 0.263160 -0.060421 -0.993004 0.112459 0.036008
-0.071053 0.263160 -0.060574 -0.999505 -0.031388 -0.002004
-0.061579 0.263160 -0.060381 -0.965438 0.139988 0.219847
-0.060442 0.263160 -0.060000 -0.756739 0.186862 0.626441
-0.033158 0.263160 -0.064604 -0.826692 0.207203 -0.523112
-0.041089 0.263160 -0.060000 -0.559148 0.066726 -0.826379
0.137368 0.263160 -0.066171 -0.799012 -0.429473 0.420871
0.146842 0.263160 -0.065346 -0.737796 -0.149085 0.658354
0.152323 0.263160 -0.060000 -0.595443 -0.130423 0.792741
-0.108947 0.284212 -0.062302 -0.985485 0.076579 0.151509
-0.112332 0.284212 -0.060000 -0.567176 -0.148308 -0.810133
-0.108947 0.265186 -0.060000 -0.915426 -0.277298 -0.291721
-0.099474 0.265995 -0.060000 -0.981663 0.171628 -0.082958
-0.103140 0.284212 -0.060000 -0.800055 -0.191330 0.568599
-0.090000 0.284212 -0.061149 -0.955392 -0.043670 -0.292096
-0.094317 0.284212 -0.060000 -0.916754 -0.103574 -0.385792
-0.080526 0.284212 -0.061953 -0.991084 0.015706 -0.132311
-0.071053 0.284212 -0.063529 -0.983072 -0.091283 -0.158864
-0.061579 0.284212 -0.062522 -0.966952 -0.097030 0.235773
-0.052973 0.284212 -0.060000 -0.817368 -0.165077 0.551960
-0.033158 0.284212 -0.062281 -0.911130 0.069562 -0.406206
-0.041871 0.284212 -0.060000 -0.887810 0.125096 -0.442882
-0.023684 0.284212 -0.064604 -0.914556 0.198660 -0.352308
0.154552 0.284212 -0.060000 -0.476444 -0.269867 0.836763
-0.118421 0.305265 -0.060213 -0.890114 -0.155300 -0.428461
-0.118834 0.305265 -0.060000 -0.686186 -0.236626 -0.687864
-0.118421 0.303632 -0.060000 -0.645256 -0.160034 -0.747017
-0.108947 0.305265 -0.062121 -0.927306 -0.373267 0.027832
-0.099474 0.296057 -0.060000 -0.972122 -0.213913 0.096024
-0.099474 0.305265 -0.060615 -0.976856 -0.211847 -0.029551
-0.090000 0.305265 -0.062068 -0.954029 -0.294317 -0.056630
-0.080526 0.305265 -0.061007 -0.989036 -0.114395 0.093392
-0.071053 0.305265 -0.060593 -0.936439 0.279162 0.212489
-0.068921 0.305265 -0.060000 -0.863165 0.332927 0.379612
-0.061579 0.298167 -0.060000 -0.799942 0.537420 0.266968
-0.042632 0.305265 -0.060694 -0.947364 0.054843 -0.315427
-0.044930 0.305265 -0.060000 -0.881434 0.106527 -0.460137
-0.042632 0.290301 -0.060000 -0.940432 -0.072061 -0.332257
-0.033158 0.305265 -0.062306 -0.952230 -0.150617 -0.265655
-0.023684 0.305265 -0.064188 -0.932860 -0.072374 -0.352893
0.156316 0.297053 -0.060000 -0.477942 -0.412550 0.775483
0.156316 0.305265 -0.062575 -0.358275 -0.582160 0.729882
0.158794 0.305265 -0.060000 -0.616985 -0.586459 0.524781
-0.127895 0.326318 -0.060221 -0.812856 -0.202518 -0.546124
-0.128305 0.326318 -0.060000 -0.689820 -0.569543 -0.446956
-0.127895 0.325862 -0.060000 -0.493115 -0.816653 -0.299858
-0.118421 0.326318 -0.065535 -0.670136 -0.598623 -0.438826
-0.099474 0.326318 -0.065986 -0.578689 -0.808915 -0.103810
-0.066017 0.326318 -0.060000 -0.447213 -0.807978 0.383631
-0.052105 0.326318 -0.062542 -0.978831 0.189197 0.078059
-0.054991 0.326318 -0.060000 -0.574817 -0.673900 -0.464159
-0.052105 0.324590 -0.060000 -0.947466 -0.286529 -0.142158
-0.042632 0.317722 -0.060000 -0.836125 -0.083518 -0.542143
-0.049377 0.326318 -0.060000 -0.592147 -0.645889 0.481860
-0.033158 0.326318 -0.065830 -0.733306 -0.651171 -0.195549
-0.041704 0.326318 -0.060000 -0.410975 -0.498662 -0.763175
0.165789 0.315191 -0.060000 -0.508204 -0.735452 0.448150
0.175263 0.325499 -0.060000 -0.404860 -0.761114 0.506748
0.175263 0.326318 -0.060442 -0.370495 -0.779942 0.504404
0.175663 0.326318 -0.060000 -0.344265 -0.713557 0.610179
-0.127895 0.326948 -0.060000 -0.397671 0.757924 -0.517116
-0.118421 0.347370 -0.062658 -0.693529 0.336204 -0.637169
-0.122174 0.347370 -0.060000 -0.573556 0.088976 -0.814320
-0.108947 0.347370 -0.065639 -0.854650 0.193732 -0.481707
-0.080526 0.347370 -0.066140 -0.998017 -0.001211 -0.062934
-0.061579 0.333393 -0.060000 -0.549250 -0.760685 0.345953
-0.052105 0.347370 -0.060850 -0.599150 -0.714324 -0.361609
-0.042632 0.328130 -0.060000 -0.179288 -0.898714 -0.400212
0.184737 0.346345 -0.060000 -0.375209 -0.588108 0.716482
0.184737 0.347370 -0.060406 -0.447987 -0.463390 0.764577
0.185191 0.347370 -0.060000 -0.369212 -0.391096 0.843046
-0.118421 0.368423 -0.064323 -0.494727 -0.579543 -0.647592
-0.122764 0.368423 -0.060000 -0.697315 -0.408566 -0.588919
-0.099474 0.368423 -0.066290 -0.896812 -0.433340 -0.089137
-0.080619 0.368423 -0.060000 -0.672764 0.489187 0.555054
-0.080526 0.368423 -0.063891 -0.414277 0.480149 0.773196
-0.080526 0.368357 -0.060000 -0.488742 0.856162 0.167682
-0.071053 0.367321 -0.060000 -0.042192 0.971678 0.232510
-0.080191 0.367438 -0.063894 -0.115585 0.835546 0.537124
-0.061579 0.368423 -0.066292 0.396640 -0.508800 -0.764068
-0.061579 0.354297 -0.060000 -0.150116 0.849937 0.505047
-0.054747 0.368423 -0.060000 0.473373 0.620920 -0.624801
0.194210 0.368231 -0.060000 -0.563315 -0.538081 0.627012
0.194210 0.368423 -0.060106 -0.433986 -0.697489 0.570232
0.194313 0.368423 -0.060000 -0.421956 -0.676668 0.603385
-0.131874 0.389475 -0.060000 -0.475683 -0.389822 -0.788521
-0.127895 0.377125 -0.060000 -0.482833 -0.620620 -0.617821
-0.118421 0.389475 -0.065973 -0.970678 -0.225251 -0.083940
-0.080526 0.389475 -0.061983 0.709477 0.060290 0.702145
-0.082933 0.389475 -0.060000 0.066354 -0.212238 0.974963
-0.071053 0.389475 -0.065824 0.907943 -0.416329 0.048050
-0.061579 0.389475 -0.062993 0.640632 0.742963 0.193896
-0.052105 0.370772 -0.060000 0.437480 0.826874 -0.353398
-0.045726 0.389475 -0.060000 0.069416 -0.759446 -0.646857
0.203684 0.387609 -0.060000 -0.526020 -0.621558 0.580490
0.203684 0.389475 -0.060527 -0.676065 -0.415144 0.608762
0.204700 0.389475 -0.060000 -0.543624 -0.563411 0.622127
-0.127895 0.408355 -0.060000 -0.669976 0.170345 -0.722575
-0.127078 0.410528 -0.060000 -0.595315 0.005007 -0.803477
-0.081783 0.410528 -0.060000 -0.006686 -0.452630 0.891673
-0.071053 0.404137 -0.060000 0.609860 -0.745076 0.270059
-0.076431 0.410528 -0.060000 0.066850 -0.814038 -0.576952
-0.068500 0.410528 -0.060000 0.196747 -0.045562 0.979395
-0.052105 0.398515 -0.060000 0.157736 -0.823186 -0.545421
-0.052105 0.410528 -0.063549 -0.493693 -0.308737 -0.812988
-0.057718 0.410528 -0.060000 -0.164781 0.064427 -0.984224
0.203684 0.410528 -0.063738 -0.662222 -0.524129 0.535492
0.212680 0.410528 -0.060000 -0.702303 -0.475856 0.529464
-0.132456 0.431581 -0.060000 -0.601821 -0.150460 -0.784330
-0.127895 0.413526 -0.060000 -0.486208 -0.465122 -0.739772
-0.080526 0.414239 -0.060000 -0.028021 -0.925021 0.378882
-0.061579 0.431581 -0.063363 0.951272 -0.180713 0.249850
-0.066113 0.431581 -0.060000 0.421207 -0.285194 0.860958
-0.052105 0.421823 -0.060000 0.333551 0.484428 -0.808748
-0.052105 0.431581 -0.063445 0.618927 -0.208310 -0.757322
-0.049448 0.431581 -0.060000 0.326382 0.166785 -0.930407
0.213158 0.411623 -0.060000 -0.663017 -0.432593 0.610960
0.213158 0.431581 -0.062274 -0.681374 -0.467069 0.563539
0.217980 0.431581 -0.060000 -0.472934 -0.497072 0.727498
-0.127895 0.443817 -0.060000 -0.492711 0.390882 -0.777462
-0.125729 0.452633 -0.060000 -0.393528 0.204316 -0.896321
-0.061579 0.452633 -0.062093 0.645400 -0.658776 0.386617
-0.064268 0.452633 -0.060000 0.448660 -0.674149 0.586709
-0.052105 0.452633 -0.062169 0.908962 -0.114136 -0.400951
-0.049055 0.452633 -0.060000 0.559788 -0.208942 -0.801861
0.222631 0.446354 -0.060000 -0.596001 -0.465717 0.654134
0.222631 0.452633 -0.061487 -0.632372 -0.503659 0.588586
0.224872 0.452633 -0.060000 -0.453363 -0.605415 0.654167
-0.124181 0.473686 -0.060000 -0.254194 -0.456182 -0.852809
-0.061579 0.455067 -0.060000 0.246963 -0.942138 0.226681
-0.052105 0.469991 -0.060000 0.765728 -0.637415 -0.085812
0.232105 0.465780 -0.060000 -0.533336 -0.634412 0.559530
0.232105 0.473686 -0.062048 -0.757274 -0.315901 0.571614
0.235662 0.473686 -0.060000 -0.507513 -0.460628 0.728184
-0.127895 0.494739 -0.064385 -0.568551 -0.520366 -0.637157
-0.133153 0.494739 -0.060000 -0.358047 -0.549545 -0.754853
-0.127895 0.481310 -0.060000 -0.394451 -0.667886 -0.631139
-0.090000 0.492024 -0.060000 0.235521 0.948908 0.210006
-0.093587 0.494739 -0.060000 -0.258115 0.323462 0.910356
-0.080526 0.494739 -0.061160 0.995462 -0.023444 -0.092223
-0.080526 0.490976 -0.060000 0.155938 0.982194 0.104781
-0.071053 0.494739 -0.061364 0.964509 0.250528 0.083414
-0.071053 0.486059 -0.060000 0.514934 0.848278 -0.123559
-0.061579 0.494739 -0.062961 0.605326 0.489911 0.627350
-0.061579 0.491914 -0.060000 0.454203 0.810537 0.369770
-0.052105 0.474541 -0.060000 0.394076 0.911639 0.116697
-0.042632 0.494739 -0.064317 0.686950 0.360533 -0.630964
-0.042632 0.483750 -0.060000 0.456315 0.806248 -0.376485
-0.037747 0.494739 -0.060000 0.435890 0.454781 -0.776643
-0.023684 0.494739 -0.061378 0.840083 0.524066 0.140056
-0.023684 0.489977 -0.060000 0.841333 0.538285 0.049084
-0.027034 0.494739 -0.060000 0.542891 0.544392 0.639458
-0.020275 0.494739 -0.060000 0.585453 0.575062 -0.571444
0.232105 0.494739 -0.064498 -0.637405 -0.119440 0.761215
0.238476 0.494739 -0.060000 -0.664537 -0.103121 0.740106
-0.137369 0.515791 -0.065566 -0.624362 0.067947 -0.778174
-0.141860 0.515791 -0.060000 -0.556144 0.070498 -0.828091
-0.137369 0.504010 -0.060000 -0.428987 -0.605933 -0.669937
-0.090000 0.498304 -0.060000 -0.175272 -0.973091 0.149576
-0.080526 0.496665 -0.060000 0.305557 -0.942260 0.137047
-0.071053 0.504975 -0.060000 0.734611 -0.477465 0.482052
-0.067742 0.515791 -0.060000 0.027749 -0.378216 0.925302
-0.061579 0.515791 -0.065737 0.447604 -0.279343 0.849481
-0.033158 0.515791 -0.065291 0.689903 0.664185 0.287909
-0.033158 0.503965 -0.060000 0.460891 0.860939 -0.215322
-0.014211 0.515791 -0.063327 0.867152 0.334775 -0.368746
-0.014211 0.504031 -0.060000 0.529886 0.785521 -0.319652
-0.004737 0.515791 -0.062294 0.991188 -0.076425 -0.108193
-0.004737 0.508358 -0.060000 0.467758 0.862448 -0.193354
0.004737 0.515791 -0.061265 0.591479 -0.296698 -0.749749
0.004737 0.514918 -0.060000 0.735131 0.495191 -0.463000
0.005143 0.515791 -0.060000 0.687361 -0.172119 -0.705628
0.232105 0.515791 -0.063781 -0.700099 0.088471 0.708544
0.237677 0.515791 -0.060000 -0.506480 0.086664 0.857885
-0.137369 0.528927 -0.060000 -0.467314 0.777667 -0.420536
-0.127895 0.531786 -0.060000 -0.587898 0.793403 -0.157759
-0.118421 0.536844 -0.060353 -0.829896 0.405144 -0.383577
-0.119902 0.536844 -0.060000 -0.852827 0.218685 -0.474197
-0.108947 0.536844 -0.064431 -0.500810 0.587744 -0.635410
-0.061579 0.534401 -0.060000 0.046015 -0.563585 0.824776
-0.060433 0.536844 -0.060000 0.136891 -0.648407 0.748886
-0.042632 0.536844 -0.063915 0.986643 -0.070761 0.146726
-0.033158 0.536844 -0.065501 0.975583 -0.130828 -0.176416
-0.023684 0.536844 -0.063758 0.988319 0.137022 -0.066710
-0.014211 0.536844 -0.063973 0.780572 -0.022008 -0.624678
-0.010041 0.536844 -0.060000 0.423091 -0.125366 -0.897373
-0.004737 0.524306 -0.060000 0.636209 -0.721347 -0.273674
0.004737 0.516995 -0.060000 0.544687 -0.587091 -0.598866
0.232105 0.536844 -0.062085 -0.455108 0.643569 0.615382
0.234830 0.536844 -0.060000 -0.610426 0.515120 0.601691
-0.118421 0.557897 -0.061346 -0.944181 0.256993 -0.206101
-0.126250 0.557897 -0.060000 -0.896186 0.137813 -0.421732
-0.108947 0.557897 -0.062651 -0.891296 0.249029 -0.378914
-0.052105 0.548877 -0.060000 0.217475 -0.677057 0.703064
-0.042632 0.557897 -0.064692 0.723548 -0.043925 0.688875
-0.048671 0.557897 -0.060000 -0.185043 -0.365619 0.912185
-0.004737 0.548966 -0.060000 0.327222 0.867631 -0.374356
0.004737 0.547479 -0.060000 0.375055 0.926970 0.007735
0.014210 0.557897 -0.064704 0.669388 0.732677 -0.122897
0.014210 0.549500 -0.060000 0.215773 0.976116 -0.025297
0.023684 0.548101 -0.060000 0.332656 0.941114 -0.060376
0.033158 0.557897 -0.062184 0.670639 0.515168 -0.533709
0.033158 0.553280 -0.060000 0.305255 0.900121 -0.310809
0.037606 0.557897 -0.060000 0.590803 0.611159 -0.526723
0.222631 0.552778 -0.060000 -0.256722 0.772769 0.580449
0.219852 0.557897 -0.060000 -0.360787 0.550725 0.752685
0.232105 0.539921 -0.060000 -0.416765 0.760079 0.498585
-0.118421 0.566426 -0.060000 -0.854676 0.473749 -0.212347
-0.108947 0.578949 -0.060417 -0.731473 0.610271 -0.304165
-0.110600 0.578949 -0.060000 -0.475901 0.819936 -0.318157
-0.099474 0.578949 -0.063875 -0.578568 0.718084 -0.386799
-0.080526 0.578949 -0.061340 -0.402697 0.913195 -0.062525
-0.052105 0.578949 -0.065333 -0.504133 0.849023 0.158143
-0.042632 0.571296 -0.060000 -0.052670 -0.904815 0.422534
-0.033158 0.577757 -0.060000 -0.126343 -0.960638 0.247410
-0.033158 0.578949 -0.061780 -0.737765 -0.243099 0.629766
-0.029719 0.578949 -0.060000 -0.145031 -0.936766 0.318488
0.014210 0.578949 -0.061079 0.786177 -0.516761 0.338945
0.033158 0.578949 -0.064026 0.914433 -0.017404 -0.404363
0.040850 0.578949 -0.060000 0.547013 0.137353 -0.825779
0.052105 0.578949 -0.063428 0.877191 0.131692 -0.461728
0.052105 0.563413 -0.060000 0.713845 0.671076 -0.200204
0.044517 0.578949 -0.060000 0.604432 0.085426 0.792063
0.055919 0.578949 -0.060000 0.171403 0.114993 -0.978467
0.071052 0.578949 -0.062000 0.899628 -0.422728 0.109409
0.071052 0.570482 -0.060000 0.800652 0.595378 0.066944
0.068030 0.578949 -0.060000 0.281923 -0.239049 0.929180
0.074894 0.578949 -0.060000 0.553201 0.035310 -0.832299
0.203684 0.578949 -0.062443 -0.209841 0.867627 0.450766
0.213158 0.578949 -0.060453 -0.250608 0.949373 0.189439
0.213543 0.578949 -0.060000 -0.322541 0.715516 0.619681
-0.108947 0.579970 -0.060000 -0.384145 0.896978 -0.218775
-0.099474 0.584036 -0.060000 -0.279220 0.956751 -0.081636
-0.090000 0.585289 -0.060000 -0.227452 0.970684 0.077709
-0.080526 0.580864 -0.060000 -0.388480 0.900973 -0.193210
-0.071053 0.589676 -0.060000 -0.159241 0.974422 -0.158569
-0.061579 0.589726 -0.060000 -0.215350 0.974972 0.055258
-0.052105 0.587469 -0.060000 -0.290543 0.955911 -0.042654
-0.042632 0.592300 -0.060000 -0.218099 0.972675 -0.079606
-0.033158 0.585024 -0.060000 -0.577756 0.697458 0.423969
0.006810 0.600002 -0.060000 -0.256367 -0.842118 -0.474462
0.014210 0.587073 -0.060000 0.510226 -0.526796 0.679820
0.014979 0.600002 -0.060000 0.228093 -0.422918 0.876991
0.033158 0.600002 -0.062238 0.529608 0.220380 -0.819114
0.034647 0.600002 -0.060000 0.452744 -0.213421 -0.865722
0.052105 0.600002 -0.064846 0.852456 0.520623 0.047640
0.047368 0.600002 -0.060000 0.357807 0.092839 0.929169
0.055444 0.600002 -0.060000 0.170510 0.127909 -0.977019
0.071052 0.586217 -0.060000 0.451693 -0.867117 -0.209956
0.184737 0.600002 -0.061078 -0.253410 0.862003 0.439016
0.185565 0.600002 -0.060000 -0.156987 0.872159 0.463351
0.194210 0.591584 -0.060000 -0.082499 0.903509 0.420554
0.203684 0.580786 -0.060000 -0.174823 0.944142 0.279344
0.213158 0.579223 -0.060000 -0.172855 0.962176 0.210568
0.014210 0.619024 -0.060000 0.477825 -0.594599 0.646634
0.023684 0.621055 -0.066242 0.989051 0.096305 -0.111819
0.033158 0.621055 -0.066267 0.889530 -0.219992 -0.400424
0.042631 0.617023 -0.060000 0.693334 0.702354 0.161205
0.042631 0.621055 -0.061552 0.844384 0.334067 0.418826
0.058959 0.621055 -0.060000 0.336607 -0.040988 -0.940753
0.165789 0.621055 -0.063570 -0.511585 0.336432 0.790629
0.170514 0.621055 -0.060000 -0.036598 0.612088 0.789942
0.175263 0.611724 -0.060000 -0.068012 0.804941 0.589444
0.184737 0.601432 -0.060000 -0.239604 0.807312 0.539292
0.023684 0.642107 -0.063222 0.599053 -0.561784 -0.570556
0.028271 0.642107 -0.060000 0.448816 -0.693255 -0.563881
0.033158 0.637138 -0.060000 0.837548 -0.546273 -0.009966
0.039188 0.642107 -0.060000 0.597261 -0.743306 0.301290
0.042631 0.642107 -0.062521 0.037423 -0.960161 -0.276930
0.052105 0.632667 -0.060000 0.339597 -0.886703 -0.313740
0.043635 0.642107 -0.060000 0.213398 -0.779878 -0.588431
0.165789 0.635995 -0.060000 0.135013 0.789666 0.598497
0.161391 0.642107 -0.060000 -0.029216 0.866476 0.498363
0.023124 0.663160 -0.060000 -0.083076 0.809845 -0.580732
0.023684 0.662387 -0.060000 0.138533 -0.559233 -0.817354
0.023684 0.663160 -0.060850 -0.176742 -0.027901 -0.983862
0.042631 0.644466 -0.060000 0.570095 -0.771236 -0.283172
0.156316 0.663160 -0.062982 -0.504100 0.158605 0.848957
0.162693 0.663160 -0.060000 -0.737400 0.309215 0.600523
0.023684 0.663892 -0.060000 -0.045581 0.324815 -0.944679
0.027985 0.684213 -0.060000 0.343977 0.412509 -0.843514
0.156316 0.684213 -0.060561 -0.466336 -0.006890 0.884581
0.156793 0.684213 -0.060000 -0.509811 0.092165 0.855335
0.026814 0.705265 -0.060000 -0.340169 -0.408599 -0.846955
0.162931 0.705265 -0.060000 -0.576090 0.255532 0.776417
0.007826 0.726318 -0.060000 -0.105499 -0.334470 -0.936483
0.014210 0.705800 -0.060000 -0.077479 -0.968000 -0.238691
0.023684 0.713428 -0.060000 -0.360945 -0.917505 -0.167043
0.156316 0.719391 -0.060000 -0.370180 0.614911 0.696313
0.153444 0.726318 -0.060000 0.025335 -0.109991 0.993610
0.005539 0.747371 -0.060000 -0.492159 -0.095679 -0.865231
0.156316 0.735020 -0.060000 -0.326459 -0.515433 0.792309
0.156316 0.747371 -0.065193 -0.401584 0.643696 0.651449
0.159627 0.747371 -0.060000 -0.498175 -0.021493 0.866810
0.004737 0.768423 -0.060402 -0.483635 -0.060422 -0.873182
0.004217 0.768423 -0.060000 -0.642244 0.046247 -0.765104
0.004737 0.760853 -0.060000 -0.473283 -0.333422 -0.815373
0.156316 0.754601 -0.060000 -0.437447 0.628629 0.643013
0.151359 0.768423 -0.060000 -0.349300 0.494306 0.796022
0.004737 0.770296 -0.060000 -0.452226 0.357710 -0.817028
0.014210 0.789476 -0.061666 -0.568071 0.303643 -0.764916
0.011605 0.789476 -0.060000 -0.695991 0.335551 -0.634825
0.137368 0.789476 -0.063859 -0.564550 0.643248 0.517219
0.143248 0.789476 -0.060000 -0.499247 0.478317 0.722472
0.146842 0.782341 -0.060000 -0.439215 0.560146 0.702372
0.014210 0.810529 -0.060031 -0.540113 0.590611 -0.599547
0.014180 0.810529 -0.060000 -0.471177 0.649883 -0.596359
0.023684 0.810529 -0.064454 -0.698798 0.511828 -0.499714
0.127895 0.810529 -0.063448 -0.402997 0.678606 0.614074
0.132560 0.810529 -0.060000 -0.456301 0.742457 0.490456
0.137368 0.803051 -0.060000 -0.509569 0.653760 0.559408
0.014210 0.810569 -0.060000 -0.350044 0.796937 -0.492301
0.023684 0.822300 -0.060000 -0.416564 0.811697 -0.409417
0.033158 0.831581 -0.060214 -0.305769 0.824728 -0.475740
0.033005 0.831581 -0.060000 -0.450669 0.792867 -0.410195
0.099474 0.831581 -0.065338 -0.450594 0.875229 0.175897
0.108947 0.831581 -0.065944 -0.331573 0.939844 0.082168
0.113272 0.831581 -0.060000 -0.410289 0.825017 0.388600
0.118421 0.828276 -0.060000 -0.296347 0.875471 0.381745
0.127895 0.815493 -0.060000 -0.231940 0.841659 0.487661
0.033158 0.831777 -0.060000 -0.394356 0.728684 -0.559914
0.042631 0.843286 -0.060000 -0.292933 0.921746 -0.254114
0.052105 0.847227 -0.060000 -0.313915 0.928801 -0.196939
0.061579 0.852634 -0.060030 -0.332515 0.930827 -0.151642
0.061526 0.852634 -0.060000 -0.100255 0.960408 -0.259933
0.071052 0.852634 -0.060271 -0.411847 0.909622 -0.054499
0.080526 0.852634 -0.061783 -0.448129 0.889959 0.084577
0.083748 0.852634 -0.060000 -0.364514 0.828239 0.425617
0.090000 0.846248 -0.060000 -0.404776 0.878820 0.252650
0.099474 0.845580 -0.060000 -0.506351 0.856141 0.103110
0.108947 0.838703 -0.060000 -0.572135 0.722006 0.389063
0.061579 0.852668 -0.060000 -0.162100 0.981488 -0.102008
0.071052 0.853010 -0.060000 -0.319862 0.941934 -0.102218
0.080526 0.856725 -0.060000 -0.345027 0.905473 0.247134
-0.288947 -0.957895 -0.058298 -0.813216 -0.483072 -0.324533
-0.293860 -0.957895 -0.053684 -0.474824 0.135044 -0.869658
-0.279474 -0.964574 -0.053684 -0.684252 -0.705383 0.185022
-0.279474 -0.957895 -0.056443 -0.967552 -0.191337 0.165026
-0.270000 -0.965055 -0.053684 -0.711187 -0.677845 -0.186385
-0.270000 -0.957895 -0.058095 -0.730306 -0.569569 -0.377152
-0.054389 -0.957895 -0.053684 -0.137010 -0.116771 0.983663
-0.288947 -0.941298 -0.053684 -0.737431 0.667229 -0.104886
-0.279474 -0.951682 -0.053684 -0.695170 0.716935 0.052363
-0.270000 -0.943536 -0.053684 -0.728053 0.516141 -0.451151
