ply
format ascii 1.0
element vertex 845
property float x
property float y
property float z
property float nx
property float ny
property float nz
end_header
0.224572 -0.114062 0.034147 -0.832577 0.434009 -0.344168
0.218446 -0.114062 0.039174 -0.818451 0.301531 -0.489098
0.231118 -0.114062 0.031978 -0.931944 0.333870 -0.141458
0.237664 -0.114062 0.031569 -0.948788 0.313054 0.042408
0.244210 -0.114062 0.032565 -0.919082 0.356485 0.167949
0.250756 -0.114062 0.034542 -0.887556 0.403460 0.222404
0.257302 -0.114062 0.036737 -0.855490 0.464260 0.229345
0.263848 -0.114062 0.038878 -0.813070 0.548658 0.194657
0.264993 -0.114062 0.039174 -0.805904 0.572171 0.152115
0.270395 -0.117372 0.039174 -0.900974 0.431821 0.042152
0.276941 -0.118440 0.039174 -0.940806 0.338942 -0.001270
0.283487 -0.117805 0.039174 -0.951047 0.308512 -0.018182
0.290033 -0.116306 0.039174 -0.955334 0.291079 -0.051089
0.296579 -0.114062 0.038154 -0.728836 0.663928 -0.167323
0.293083 -0.114062 0.039174 -0.904424 0.408825 -0.121984
0.303125 -0.114062 0.036688 -0.747483 0.653954 -0.116672
-0.312204 -0.093906 0.032681 -0.868423 0.326119 -0.373482
-0.317832 -0.093906 0.039174 -0.935788 0.126114 -0.329236
-0.318750 -0.094795 0.039174 -0.499305 0.837844 -0.220705
-0.305658 -0.093906 0.031258 -0.981229 0.189290 -0.036858
-0.299112 -0.093906 0.031849 -0.927622 0.310265 0.207973
-0.292566 -0.093906 0.035293 -0.618861 0.711083 0.333725
-0.288043 -0.093906 0.039174 -0.753750 0.587567 0.294323
-0.286020 -0.095582 0.039174 -0.579691 0.792848 0.188015
-0.279474 -0.100666 0.039174 -0.709751 0.687414 0.153999
-0.272928 -0.104005 0.039174 -0.783481 0.619097 0.053636
-0.266382 -0.103793 0.039174 -0.768388 0.639795 0.015577
-0.259836 -0.104954 0.039174 -0.757565 0.634994 0.151255
-0.168191 -0.094167 0.039174 -0.488294 0.760882 -0.427348
-0.161645 -0.093906 0.031082 -0.957767 0.286780 -0.020981
-0.168105 -0.093906 0.039174 -0.491618 0.587373 -0.642887
-0.148553 -0.093906 0.031066 -0.982538 0.185189 0.018006
-0.142012 -0.093906 0.039174 -0.629093 0.477627 0.613283
-0.142007 -0.094161 0.039174 -0.633370 0.580343 0.511903
-0.030724 -0.094144 0.039174 -0.493641 0.869601 -0.010580
-0.024178 -0.094008 0.039174 -0.688247 0.399060 -0.605861
-0.017632 -0.093906 0.031089 -0.961421 0.275074 -0.002034
-0.024137 -0.093906 0.039174 -0.651613 0.167819 -0.739755
-0.011086 -0.093906 0.031098 -0.932062 0.340531 -0.123688
0.021645 -0.093906 0.034444 -0.601320 0.614673 0.510482
0.024401 -0.093906 0.039174 -0.243538 0.968472 0.052463
0.028191 -0.102317 0.039174 -0.508185 0.694949 0.508719
0.224572 -0.098193 0.039174 -0.764411 0.577560 -0.286532
0.231118 -0.093906 0.037070 -0.712235 0.643291 -0.280887
0.227391 -0.093906 0.039174 -0.776138 0.550337 -0.307796
0.237664 -0.093906 0.035204 -0.833699 0.551347 -0.031028
0.244210 -0.093906 0.036997 -0.825350 0.517824 0.225068
0.249318 -0.093906 0.039174 -0.842405 0.480094 0.244670
0.250756 -0.095616 0.039174 -0.800496 0.565625 0.198178
0.257302 -0.102374 0.039174 -0.862626 0.468432 0.190914
0.263848 -0.112261 0.039174 -0.917310 0.347545 0.194305
0.296579 -0.111123 0.039174 -0.918610 0.383082 -0.096975
0.303125 -0.106956 0.039174 -0.979299 0.199504 -0.034230
-0.318750 -0.092429 0.039174 -0.751772 -0.583883 -0.306463
-0.286020 -0.075698 0.039174 -0.769816 -0.277899 0.574592
-0.286020 -0.073749 0.038738 -0.485387 -0.580000 0.654216
-0.285721 -0.073749 0.039174 -0.785938 -0.389779 0.479973
-0.161645 -0.073940 0.039174 -0.402919 0.898006 -0.176755
-0.155099 -0.073749 0.031173 -0.993373 0.114929 0.000890
-0.161467 -0.073749 0.039174 -0.671917 0.622954 -0.400569
-0.148553 -0.073749 0.031826 -0.907169 0.348843 0.235271
-0.142321 -0.073749 0.039174 -0.832293 0.544674 0.103050
-0.017632 -0.073919 0.039174 -0.429679 0.900898 -0.061303
-0.011086 -0.073749 0.031634 -0.624277 0.777396 -0.077031
-0.016961 -0.073749 0.039174 -0.834027 0.544412 -0.089529
-0.004540 -0.073749 0.031236 -0.917852 0.396885 -0.005404
0.002006 -0.073749 0.031614 -0.648090 0.759962 0.049369
0.008553 -0.073749 0.038635 -0.081420 0.989483 0.119561
0.015099 -0.073749 0.038953 -0.025662 0.999604 0.011555
0.015270 -0.073749 0.039174 -0.183294 0.936376 0.299339
0.021645 -0.086818 0.039174 -0.514192 0.434991 0.739182
0.231118 -0.087184 0.039174 -0.794059 0.559342 -0.237921
0.237664 -0.081645 0.039174 -0.783639 0.621206 -0.003606
0.244210 -0.084174 0.039174 -0.871179 0.467342 0.150461
-0.279474 -0.061115 0.039174 -0.411452 -0.760768 0.501936
-0.275772 -0.053593 0.039174 -0.125054 -0.154116 0.980107
-0.155099 -0.053593 0.038425 -0.515760 0.818354 -0.253550
-0.155809 -0.053593 0.039174 -0.999414 0.027271 -0.020676
-0.148553 -0.053593 0.038316 -0.852585 0.491459 0.177671
-0.147162 -0.053593 0.039174 -0.999534 0.023519 0.019453
-0.011086 -0.055072 0.039174 -0.482537 0.873959 -0.057910
-0.004540 -0.054003 0.039174 -0.313781 0.949241 0.021975
0.002006 -0.055004 0.039174 -0.626121 0.775058 0.085195
0.008553 -0.072577 0.039174 -0.997169 0.026620 0.070330
0.015099 -0.073269 0.039174 -0.537890 0.667589 0.514781
-0.279474 -0.045519 0.039174 -0.219784 0.758324 0.613710
-0.283428 -0.033437 0.039174 -0.062812 -0.545582 0.835700
-0.155099 -0.050388 0.039174 -0.999847 0.014779 -0.009352
-0.148553 -0.045600 0.039174 -0.999820 0.013395 0.013402
-0.279474 -0.024712 0.039174 -0.156680 -0.821608 0.548098
-0.272928 -0.015293 0.039174 0.002174 -0.938071 0.346437
-0.266382 -0.013281 0.033674 0.394324 -0.804419 0.444318
-0.270870 -0.013281 0.039174 0.088918 -0.961272 0.260864
-0.266382 -0.005339 0.039174 -0.303728 -0.711741 0.633383
-0.259836 0.006876 0.032684 0.468618 -0.537712 0.700901
-0.262812 0.006876 0.039174 -0.820858 -0.501519 0.273259
-0.259836 0.010590 0.039174 -0.904333 -0.374094 0.205513
-0.255256 0.027032 0.039174 -0.286196 -0.957250 0.041992
-0.155099 0.027032 0.037906 -0.972347 0.046825 0.228797
-0.158118 0.027032 0.039174 -0.861789 0.043532 -0.505396
-0.155099 0.007688 0.039174 -0.996379 -0.073627 -0.042510
-0.152843 0.027032 0.039174 -0.948028 0.060263 0.312428
-0.253289 0.027151 0.039174 -0.060300 -0.998009 0.018516
-0.246743 0.028374 0.039174 -0.450870 -0.875209 0.175290
-0.246743 0.047188 0.031483 -0.164026 -0.986315 0.016687
-0.240387 0.047188 0.039174 -0.740411 -0.668798 0.067083
-0.155099 0.033877 0.039174 -0.999782 0.020171 -0.005350
0.231118 0.047188 0.038998 -0.817262 -0.564084 -0.117864
0.230617 0.047188 0.039174 -0.676436 -0.678671 -0.286077
0.231118 0.046752 0.039174 -0.478146 -0.859198 -0.182085
0.237664 0.045801 0.039174 -0.622728 -0.779740 -0.064929
0.237664 0.047188 0.038705 -0.752310 -0.653593 -0.082739
0.244210 0.043083 0.039174 -0.627541 -0.774550 -0.079154
0.244210 0.047188 0.037505 -0.778196 -0.625111 -0.060390
0.250756 0.042169 0.039174 -0.703110 -0.710538 0.027774
0.250756 0.047188 0.037162 -0.769580 -0.630274 0.102475
0.257302 0.046975 0.039174 -0.767128 -0.628451 0.128703
0.257302 0.047188 0.039096 -0.755782 -0.643119 0.123249
0.257828 0.047188 0.039174 -0.843168 -0.532977 0.070736
-0.240197 0.047213 0.039174 -0.202732 -0.978793 0.029398
-0.233651 0.047315 0.039174 -0.138478 -0.990359 0.003491
-0.227105 0.047295 0.039174 -0.034011 -0.999420 0.001945
-0.220559 0.047719 0.039174 -0.070984 -0.996277 0.048930
-0.220559 0.067344 0.031434 -0.334305 -0.941937 0.031533
-0.214013 0.056763 0.039174 -0.945980 -0.242173 0.215578
-0.214013 0.067344 0.034972 -0.065001 -0.996507 0.052437
-0.210724 0.067344 0.039174 -0.675804 -0.736850 0.018440
-0.168191 0.067344 0.031464 -0.974411 -0.212490 -0.073293
-0.174313 0.067344 0.039174 -0.599292 -0.792706 -0.111650
-0.168191 0.048861 0.039174 -0.937964 -0.341788 -0.058346
-0.161645 0.047387 0.039174 -0.704615 -0.709574 -0.004779
-0.161645 0.067344 0.031122 -0.999627 -0.025575 -0.009605
-0.155099 0.047570 0.039174 -0.905439 -0.424437 0.005852
-0.148569 0.067344 0.039174 -0.906729 -0.197440 0.372639
0.211480 0.067344 0.038950 -0.691873 -0.630146 -0.352458
0.211205 0.067344 0.039174 -0.558411 -0.633116 -0.536043
0.211480 0.066827 0.039174 -0.484669 -0.753242 -0.444660
0.218026 0.060560 0.039174 -0.554158 -0.794656 -0.247851
0.218026 0.067344 0.036390 -0.754923 -0.624611 -0.199882
0.224572 0.054435 0.039174 -0.564584 -0.782266 -0.263260
0.224572 0.067344 0.034667 -0.756869 -0.645300 -0.103617
0.231118 0.067344 0.033807 -0.750207 -0.660270 -0.035111
0.237664 0.067344 0.033716 -0.840577 -0.541637 -0.007704
0.244210 0.067344 0.033655 -0.878768 -0.477012 -0.015014
0.250756 0.067344 0.033469 -0.915917 -0.398698 0.046219
0.257302 0.067344 0.034642 -0.846554 -0.513557 0.140020
0.263848 0.050364 0.039174 -0.911039 -0.389419 0.135506
0.263848 0.067344 0.036036 -0.756772 -0.631403 0.169194
0.270395 0.062113 0.039174 -0.970588 -0.220718 0.096141
0.270395 0.067344 0.038192 -0.872691 -0.461098 0.160618
0.276941 0.066315 0.039174 -0.982000 -0.185503 0.035567
0.276941 0.067344 0.039075 -0.992326 -0.114941 0.045575
0.278813 0.067344 0.039174 -0.985459 -0.165704 0.037597
0.303125 0.067344 0.038861 -0.966984 -0.243837 -0.074067
0.299522 0.067344 0.039174 -0.973612 -0.217074 -0.070420
0.303125 0.064263 0.039174 -0.973182 -0.220356 -0.066023
-0.207467 0.067447 0.039174 -0.177715 -0.984061 0.006467
-0.200921 0.067428 0.039174 -0.283803 -0.958882 -0.000172
-0.194375 0.067456 0.039174 -0.267443 -0.963573 0.001191
-0.187829 0.067473 0.039174 -0.169027 -0.985611 0.000592
-0.181283 0.067475 0.039174 -0.276020 -0.961152 -0.000120
-0.174737 0.067461 0.039174 -0.428739 -0.903119 -0.023659
-0.174737 0.087501 0.031062 -0.879049 -0.476724 0.002834
-0.168191 0.087501 0.031065 -0.818299 -0.574793 -0.000775
-0.161645 0.087501 0.031051 -0.871144 -0.491028 0.000380
-0.155099 0.087501 0.031075 -0.935508 -0.353302 0.001830
-0.148553 0.067656 0.039174 -0.914275 -0.119266 0.387139
-0.142460 0.087501 0.039174 -0.989022 -0.124247 0.079989
0.198388 0.087501 0.038748 -0.582558 -0.732505 -0.352225
0.197850 0.087501 0.039174 -0.587952 -0.702919 -0.400272
0.198388 0.086849 0.039174 -0.619286 -0.715357 -0.323650
0.204934 0.079249 0.039174 -0.643185 -0.694186 -0.323139
0.204934 0.087501 0.034795 -0.617736 -0.736365 -0.275986
0.211480 0.087501 0.031214 -0.670167 -0.708520 -0.221078
0.263848 0.087501 0.031277 -0.833297 -0.536685 0.132610
0.270395 0.087501 0.033553 -0.263647 -0.961230 0.080796
0.276941 0.087501 0.036231 -0.176737 -0.983655 0.034463
0.283487 0.071645 0.039174 -0.997216 -0.072568 0.017146
0.283487 0.087501 0.036648 -0.205084 -0.978738 0.003494
0.290033 0.075216 0.039174 -0.996351 -0.085336 0.001617
0.290033 0.087501 0.036623 -0.220737 -0.975202 -0.016034
0.296579 0.071183 0.039174 -0.988780 -0.143226 -0.042425
0.296579 0.087501 0.035776 -0.212512 -0.975462 -0.057554
0.303125 0.087501 0.033364 -0.203782 -0.977617 -0.052333
-0.142007 0.100935 0.039174 -0.589903 -0.556583 0.585004
-0.142007 0.107657 0.038299 -0.416598 -0.568672 0.709266
-0.141437 0.107657 0.039174 -0.887035 -0.460128 0.038095
0.191842 0.107657 0.037018 -0.448896 -0.866280 -0.219208
0.187571 0.107657 0.039174 -0.726170 -0.676728 -0.121307
0.191842 0.101057 0.039174 -0.887724 -0.384426 -0.253303
0.198388 0.107657 0.032594 -0.739005 -0.572970 -0.354368
-0.142007 0.127813 0.031120 -0.295380 -0.841036 0.453221
-0.135482 0.127813 0.039174 -0.549103 -0.412795 0.726696
0.157282 0.127813 0.039174 0.003195 -0.999480 -0.032075
0.159112 0.120409 0.039174 -0.877839 -0.411374 -0.245295
0.165658 0.112864 0.039174 -0.864655 -0.487825 -0.119995
0.172204 0.109457 0.039174 -0.575134 -0.816548 -0.049710
0.178750 0.108746 0.039174 -0.632398 -0.773992 -0.031757
0.185296 0.108271 0.039174 -0.527888 -0.847835 -0.050093
0.191842 0.127813 0.031166 -0.878149 -0.478338 -0.006896
-0.135472 0.147969 0.039174 -0.210845 -0.560957 0.800545
0.147648 0.147969 0.039174 0.080674 -0.981704 -0.172482
0.152566 0.131561 0.039174 -0.017149 -0.436808 -0.899391
-0.135461 0.148015 0.039174 -0.189193 -0.826362 0.530408
-0.128966 0.168126 0.039174 -0.159916 -0.490763 0.856492
0.140402 0.168126 0.039174 0.656621 -0.633536 -0.409243
0.146020 0.149822 0.039174 0.004178 -0.384604 -0.923072
-0.128915 0.177168 0.039174 -0.112051 -0.320850 0.940478
-0.127210 0.188282 0.039174 -0.502631 -0.860184 0.086287
0.132927 0.188282 0.031235 0.218905 -0.460495 -0.860247
0.137058 0.188282 0.039174 0.404909 -0.899060 -0.166553
0.139474 0.174443 0.039174 0.099350 -0.490805 -0.865586
-0.122767 0.208438 0.039174 -0.650110 -0.351614 0.673591
0.126381 0.208438 0.031278 0.718826 -0.553703 -0.420360
0.132927 0.208438 0.039141 0.364657 -0.554527 -0.748014
0.132938 0.208438 0.039174 0.268789 -0.613678 -0.742396
-0.122404 0.228595 0.039174 -0.072470 -0.429924 0.899952
0.021645 0.228595 0.032880 0.852685 -0.436933 -0.286386
0.028191 0.228595 0.034438 0.943466 -0.311520 -0.113254
0.034737 0.228595 0.035020 0.968529 -0.246241 -0.036287
0.041283 0.228595 0.035090 0.970713 -0.240132 -0.007303
0.047829 0.228595 0.035144 0.974050 -0.226309 -0.003322
0.054375 0.228595 0.035143 0.975747 -0.218902 0.000248
0.060921 0.228595 0.035139 0.977513 -0.210876 0.000195
0.067467 0.228595 0.035140 0.977671 -0.210118 0.003250
0.074013 0.228595 0.035084 0.976023 -0.217467 0.009314
0.080559 0.228595 0.034983 0.974508 -0.223667 0.017558
0.087105 0.228595 0.034781 0.969824 -0.242387 0.026258
0.093651 0.228595 0.034529 0.965487 -0.256043 0.047720
0.100197 0.228595 0.033884 0.942962 -0.317342 0.100582
0.106743 0.228595 0.032511 0.890303 -0.446760 0.088123
0.113289 0.228595 0.032641 0.902755 -0.429566 -0.022524
0.119835 0.228595 0.033021 0.862729 -0.486765 -0.136965
0.126381 0.228595 0.039135 0.624623 -0.262684 -0.735421
0.126411 0.228595 0.039174 0.547077 -0.459024 -0.700003
0.132927 0.208491 0.039174 0.122488 -0.538310 -0.833798
-0.122368 0.243171 0.039174 -0.161076 -0.510306 0.844774
-0.121828 0.248751 0.039174 -0.227780 -0.972735 0.043615
-0.004540 0.248751 0.032974 0.844947 -0.401773 -0.353049
0.002006 0.248751 0.034715 0.954469 -0.278288 -0.107449
0.008553 0.248751 0.035105 0.965792 -0.257921 -0.026885
0.015099 0.248751 0.035184 0.971202 -0.238052 -0.009871
0.021645 0.248751 0.035271 0.979662 -0.200518 -0.007385
0.028191 0.248751 0.035306 0.978086 -0.208169 -0.003650
0.034737 0.248751 0.035324 0.984375 -0.176083 -0.001095
0.041283 0.248751 0.035320 0.994392 -0.105686 -0.003818
0.047829 0.248751 0.035389 0.996750 -0.080310 -0.006362
0.054375 0.248751 0.035424 0.997066 -0.076518 -0.001974
0.060921 0.248751 0.035420 0.996734 -0.080723 -0.002235
0.067467 0.248751 0.035462 0.996790 -0.080054 -0.000363
0.074013 0.248751 0.035424 0.996084 -0.087775 0.010552
0.080559 0.248751 0.035286 0.996422 -0.083075 0.015555
0.087105 0.248751 0.035166 0.997310 -0.071268 0.017136
0.093651 0.248751 0.034997 0.998006 -0.056053 0.029014
0.100197 0.248751 0.034661 0.997044 -0.065495 0.040174
0.106743 0.248751 0.034317 0.995984 -0.082270 0.035306
0.113289 0.248751 0.034076 0.943463 -0.307271 -0.124345
0.119821 0.248751 0.039174 0.614157 -0.173835 -0.769801
0.119835 0.248707 0.039174 0.815685 -0.248320 -0.522490
0.126381 0.229273 0.039174 0.283738 -0.125738 -0.950622
-0.116188 0.268907 0.039174 -0.409036 -0.546174 0.731016
-0.017632 0.268907 0.032856 0.918362 -0.226529 -0.324494
-0.011086 0.268907 0.034905 0.979820 -0.171525 -0.102623
-0.004540 0.268907 0.035206 0.995924 -0.085109 -0.029865
0.002006 0.268907 0.035420 0.996710 -0.068788 -0.042860
0.008553 0.268907 0.035943 0.997623 -0.026657 -0.063539
0.015099 0.268907 0.036472 0.994058 -0.064766 -0.087484
0.021645 0.268907 0.037498 0.969370 -0.176914 -0.170361
0.027308 0.268907 0.039174 0.911842 -0.313642 -0.264904
0.028191 0.268044 0.039174 0.754641 -0.652225 -0.071550
0.034737 0.268187 0.039174 0.792415 -0.596731 0.126452
0.035517 0.268907 0.039174 0.953387 -0.123220 0.275444
0.041283 0.268907 0.037517 0.959496 -0.233412 0.157755
0.047829 0.268907 0.036809 0.989184 -0.139151 0.046395
0.054375 0.268907 0.036713 0.995438 -0.095342 0.003519
0.060921 0.268907 0.036753 0.995511 -0.094617 -0.002449
0.067467 0.268907 0.036753 0.993308 -0.115190 -0.008395
0.074013 0.268907 0.036898 0.991209 -0.131781 0.011746
0.080559 0.268907 0.036552 0.983709 -0.173859 0.045711
0.087105 0.268907 0.036137 0.990641 -0.119464 0.066023
0.093651 0.268907 0.035453 0.995373 -0.066616 0.069246
0.100197 0.268907 0.034983 0.998628 -0.026878 0.044950
0.106743 0.268907 0.034724 0.993812 -0.071970 -0.084606
0.113289 0.268907 0.038826 0.916200 -0.070993 -0.394382
0.119317 0.268907 0.039174 0.691325 -0.721503 -0.038755
-0.115822 0.279242 0.039174 -0.028802 -0.659974 0.750736
-0.113922 0.289063 0.039174 -0.086585 -0.995402 0.040957
-0.037270 0.289063 0.031512 0.996688 0.081308 -0.001099
-0.017632 0.289063 0.033190 0.937590 0.248253 -0.243506
-0.011086 0.289063 0.034833 0.975631 0.202995 -0.083287
-0.004540 0.289063 0.035055 0.990849 0.133344 -0.020903
0.002006 0.289063 0.035182 0.993342 0.113128 -0.021750
0.008553 0.289063 0.035418 0.994653 0.093343 -0.044196
0.015099 0.289063 0.035944 0.989596 0.118861 -0.081062
0.021645 0.289063 0.036852 0.974168 0.189405 -0.122973
0.028191 0.273399 0.039174 0.970777 0.177866 -0.161107
0.028191 0.289063 0.038138 0.948998 0.312511 -0.041715
0.034737 0.289063 0.037649 0.966487 0.243896 0.080117
0.034737 0.271523 0.039174 0.965259 0.242328 0.097732
0.041283 0.289063 0.036928 0.974750 0.216664 0.054025
0.047829 0.289063 0.036632 0.988509 0.148208 0.029743
0.054375 0.289063 0.036435 0.993562 0.113235 0.003506
0.060921 0.289063 0.036579 0.992218 0.122430 -0.022672
0.067467 0.289063 0.036818 0.990407 0.131370 -0.042855
0.074013 0.289063 0.037326 0.986387 0.146961 -0.073778
0.080559 0.289063 0.038108 0.977072 0.212312 0.015949
0.087105 0.289063 0.036999 0.984414 0.094349 0.148418
0.093651 0.289063 0.035708 0.992024 0.037149 0.120455
0.100197 0.289063 0.034953 0.998275 0.025339 0.052955
0.106743 0.289063 0.034876 0.993275 0.038279 -0.109271
0.113289 0.289063 0.039123 0.877977 -0.025630 -0.478017
0.113408 0.289063 0.039174 0.876136 -0.242912 -0.416388
-0.109276 0.302324 0.039174 -0.064918 -0.693361 0.717661
-0.109276 0.309220 0.036302 -0.023056 -0.701984 0.711820
-0.109048 0.309220 0.039174 -0.257857 -0.828383 0.497284
-0.004540 0.309220 0.031430 0.713171 0.671499 -0.201188
0.002006 0.309220 0.032892 0.852680 0.503761 -0.138427
0.008553 0.309220 0.034031 0.916081 0.390091 -0.092871
0.015099 0.309220 0.034615 0.944406 0.324196 -0.054719
0.021645 0.309220 0.034988 0.952425 0.303438 -0.028478
0.028191 0.309220 0.035115 0.956949 0.290110 -0.009210
0.034737 0.309220 0.035144 0.956879 0.290484 -0.001297
0.041283 0.309220 0.035136 0.961386 0.275203 0.000291
0.047829 0.309220 0.035140 0.966390 0.257081 0.000141
0.054375 0.309220 0.035134 0.969128 0.246556 -0.000515
0.060921 0.309220 0.035149 0.972266 0.233852 -0.003598
0.067467 0.309220 0.035195 0.971214 0.238170 -0.004248
0.074013 0.309220 0.035223 0.976398 0.215979 -0.000972
0.080559 0.309220 0.035199 0.969879 0.243427 0.008834
0.087105 0.309220 0.035050 0.965160 0.260764 0.021643
0.093651 0.309220 0.034825 0.963701 0.264505 0.036293
0.100197 0.309220 0.034397 0.956570 0.289087 0.037463
0.106743 0.309220 0.034194 0.941002 0.325443 -0.092746
0.113289 0.309220 0.038640 0.823806 0.252565 -0.507498
0.114219 0.309220 0.039174 0.814313 0.372287 -0.445306
-0.102893 0.329376 0.039174 0.372978 -0.415290 0.829712
0.074013 0.329376 0.031076 0.748036 0.662968 -0.030248
0.119835 0.329376 0.039052 0.632267 0.134086 -0.763059
0.119835 0.328485 0.039174 0.485648 0.446902 -0.751282
0.119917 0.329376 0.039174 0.411668 0.049266 -0.910001
-0.102773 0.349532 0.039174 0.132160 -0.379023 0.915901
0.119835 0.349532 0.038622 0.486070 0.343669 -0.803510
0.120191 0.349532 0.039174 0.526198 0.237340 -0.816569
-0.102730 0.369688 0.039153 0.464413 -0.050925 0.884153
-0.102743 0.369688 0.039174 0.350914 -0.059560 0.934512
0.119835 0.369688 0.034589 0.545115 0.317810 -0.775788
0.122608 0.369688 0.039174 0.413618 0.248205 -0.875965
-0.102730 0.389845 0.038767 0.219953 0.261672 0.939760
-0.102839 0.389845 0.039174 0.253761 0.276556 0.926888
0.126381 0.389845 0.039174 0.471254 0.168037 -0.865842
-0.105195 0.410001 0.039174 0.242402 0.293884 0.924593
0.126381 0.390035 0.039174 0.519291 0.008945 -0.854551
0.126381 0.410001 0.039061 0.417993 0.046269 -0.907271
0.126436 0.410001 0.039174 0.250022 0.066595 -0.965947
-0.109276 0.430157 0.038999 0.305295 0.345023 0.887555
-0.109276 0.429851 0.039174 0.109267 0.335224 0.935781
-0.109354 0.430157 0.039174 0.304614 0.294001 0.905966
0.126381 0.430157 0.032227 0.042888 0.388360 -0.920509
0.126472 0.430157 0.039174 0.136195 0.309008 -0.941257
-0.111681 0.450313 0.039174 0.073762 0.329618 0.941228
0.130511 0.450313 0.039174 0.124939 0.403093 -0.906590
-0.115345 0.470470 0.039174 -0.170656 0.194300 0.965983
0.132927 0.470262 0.039174 -0.109252 0.225452 -0.968109
0.132954 0.470470 0.039174 -0.033542 0.150985 -0.987967
-0.115822 0.488856 0.039174 -0.400312 0.150602 0.903919
-0.115859 0.490626 0.039174 -0.114515 0.158426 0.980708
0.132953 0.490626 0.039174 -0.270862 0.211061 -0.939195
-0.115851 0.510782 0.039174 -0.235444 -0.364188 0.901073
0.126381 0.510782 0.039141 -0.715403 -0.135609 -0.685426
0.126359 0.510782 0.039174 -0.440548 -0.174844 -0.880538
0.126381 0.510649 0.039174 -0.481025 -0.334795 -0.810264
0.130604 0.510782 0.039174 -0.649440 -0.760019 0.024467
0.139474 0.510782 0.031090 -0.818344 0.524309 -0.235402
0.132973 0.510782 0.039174 -0.497804 0.653290 -0.570442
-0.115822 0.510875 0.039174 -0.206698 -0.847351 0.489155
-0.115822 0.530939 0.031035 -0.485632 -0.839684 0.243088
-0.109276 0.522710 0.039174 -0.492101 -0.694876 0.524389
-0.109276 0.530939 0.031904 -0.297212 -0.938850 0.173854
-0.103404 0.530939 0.039174 -0.538440 -0.837186 0.095929
0.126381 0.520881 0.039174 -0.769696 -0.444786 -0.457966
0.139474 0.530939 0.031078 -0.993037 0.113057 -0.033091
0.133031 0.530939 0.039174 -0.593869 -0.550901 -0.586368
-0.102730 0.531064 0.039174 -0.132522 -0.990194 0.044192
-0.096184 0.531651 0.039174 -0.472364 -0.834897 0.282522
-0.096184 0.551095 0.031093 -0.469359 -0.870402 0.148668
-0.089638 0.544167 0.039174 -0.491201 -0.793217 0.359900
-0.089638 0.551095 0.031173 -0.322442 -0.946538 0.009837
-0.083174 0.551095 0.039174 -0.371861 -0.886640 0.274936
0.126381 0.551095 0.035640 -0.305944 -0.887499 -0.344593
0.124685 0.551095 0.039174 -0.648883 -0.760850 -0.007614
0.126381 0.545529 0.039174 -0.800443 -0.428093 -0.419556
0.132927 0.531160 0.039174 -0.579672 -0.792831 -0.188148
0.132927 0.551095 0.031040 -0.880017 -0.474941 -0.001056
0.139474 0.551095 0.031038 -0.796266 -0.543882 -0.264863
-0.083092 0.551162 0.039174 -0.181063 -0.968404 0.171495
-0.076546 0.551196 0.039174 -0.116052 -0.993238 0.003328
-0.070000 0.551319 0.039174 -0.309069 -0.951008 0.007687
-0.063454 0.551545 0.039174 -0.433097 -0.888891 0.149332
-0.056908 0.557405 0.039174 -0.490681 -0.826152 0.276957
-0.056908 0.571251 0.031092 -0.425062 -0.905148 0.005518
-0.050362 0.566869 0.039174 -0.514870 -0.806603 0.290346
-0.050362 0.571251 0.031296 -0.185767 -0.982523 0.011801
-0.043816 0.571152 0.039174 -0.435086 -0.894542 0.102443
-0.043816 0.571251 0.037310 -0.045784 -0.997440 0.054924
-0.040578 0.571251 0.039174 -0.402775 -0.915271 0.007177
0.100197 0.571251 0.033257 -0.177830 -0.979306 -0.096629
0.096385 0.571251 0.039174 -0.383962 -0.923311 -0.008403
0.100197 0.563869 0.039174 -0.917874 -0.301716 -0.257828
0.106743 0.551476 0.039174 -0.075479 -0.996888 -0.022756
0.106743 0.571251 0.031036 -0.545925 -0.837834 0.000274
0.113289 0.551172 0.039174 -0.056017 -0.998418 -0.004860
0.113289 0.571251 0.031048 -0.820016 -0.572241 -0.010684
0.119835 0.551175 0.039174 -0.390912 -0.920424 -0.002584
-0.037270 0.571318 0.039174 -0.184476 -0.982823 0.005161
-0.030724 0.571356 0.039174 -0.082663 -0.996575 0.002078
-0.024178 0.571399 0.039174 -0.126591 -0.991953 0.002200
-0.017632 0.571440 0.039174 -0.266947 -0.963710 0.001457
-0.011086 0.571457 0.039174 -0.316865 -0.948469 0.001496
-0.004540 0.571506 0.039174 -0.407931 -0.913009 0.002685
0.002006 0.571577 0.039174 -0.509937 -0.860208 0.002462
0.002006 0.591407 0.031065 -0.711777 -0.702403 0.001877
0.008553 0.571613 0.039174 -0.500476 -0.865749 0.001365
0.008553 0.591407 0.031052 -0.685806 -0.727784 -0.000517
0.015099 0.571640 0.039174 -0.529516 -0.848300 0.000495
0.015099 0.591407 0.031050 -0.661776 -0.749702 -0.000216
0.021645 0.571635 0.039174 -0.554942 -0.831889 -0.000536
0.021645 0.591407 0.031047 -0.647451 -0.762107 0.000464
0.028191 0.571614 0.039174 -0.552005 -0.833840 -0.000543
0.028191 0.591407 0.031057 -0.645752 -0.763547 0.001002
0.034737 0.571609 0.039174 -0.506299 -0.862357 -0.001285
0.034737 0.591407 0.031070 -0.664308 -0.747459 -0.000532
0.041283 0.571560 0.039174 -0.491937 -0.870629 -0.001813
0.041283 0.591407 0.031056 -0.697172 -0.716866 -0.007395
0.047829 0.571524 0.039174 -0.312374 -0.949956 -0.002488
0.054375 0.571462 0.039174 -0.192640 -0.981266 -0.002750
0.060921 0.571410 0.039174 -0.057239 -0.998358 -0.002385
0.067467 0.571366 0.039174 -0.014308 -0.999896 -0.001968
0.074013 0.571330 0.039174 -0.007317 -0.999972 -0.001744
0.080559 0.571295 0.039174 -0.158486 -0.987360 -0.001563
0.087105 0.571266 0.039174 -0.267491 -0.963560 -0.000334
0.093651 0.571299 0.039174 -0.250095 -0.968220 -0.001514
-0.312204 0.634027 0.039174 0.652368 0.757902 -0.000762
-0.318750 0.633996 0.039174 0.520099 0.854105 -0.001278
-0.305658 0.634024 0.039174 0.847645 0.530459 -0.010575
-0.299112 0.635322 0.039174 0.929022 0.364696 -0.062568
-0.292566 0.641604 0.039174 0.874119 0.457614 -0.162804
-0.286020 0.651876 0.035286 0.333786 0.931340 -0.145579
-0.286020 0.648203 0.039174 0.617137 0.773527 -0.144212
-0.279474 0.651876 0.037740 0.574791 0.786931 -0.224401
-0.279474 0.650056 0.039174 0.425190 0.894225 -0.139915
-0.277344 0.651876 0.039174 0.532275 0.783247 -0.321258
-0.011086 0.651876 0.031044 -0.576112 0.817354 0.005234
-0.004540 0.651876 0.031060 -0.445866 0.895099 0.001244
0.002006 0.651876 0.031118 -0.235742 0.971813 0.002347
0.008553 0.651876 0.031227 -0.101749 0.994809 0.001414
0.015099 0.651876 0.031239 -0.088366 0.996088 -0.000265
0.021645 0.651876 0.031185 -0.180839 0.983509 -0.002631
0.028191 0.651876 0.031072 -0.401685 0.915760 -0.005678
-0.272928 0.672032 0.037270 0.450761 0.808991 -0.377289
-0.272928 0.668818 0.039174 0.600059 0.733762 -0.318626
-0.270869 0.672032 0.039174 0.499325 0.842276 -0.203090
-0.024178 0.671808 0.039174 -0.089414 0.933451 0.347383
-0.024318 0.672032 0.039174 -0.077902 0.873180 0.481133
-0.017632 0.671473 0.039174 -0.038138 0.949611 0.311101
-0.011086 0.659943 0.039174 -0.259548 0.935075 0.241390
-0.004540 0.656579 0.039174 -0.258528 0.956797 0.133052
0.002006 0.653872 0.039174 -0.303336 0.949602 0.079013
0.008553 0.652811 0.039174 -0.313124 0.949636 0.012077
0.015099 0.652963 0.039174 -0.321992 0.946177 -0.032705
0.021645 0.653928 0.039174 -0.309994 0.937109 -0.160410
0.028191 0.658088 0.039174 -0.302288 0.904151 -0.301883
0.034737 0.670596 0.039174 -0.073803 0.942081 -0.327164
0.041283 0.671922 0.039174 -0.299318 0.953584 -0.032954
0.047829 0.671997 0.039174 -0.210763 0.954521 -0.210876
0.047858 0.672032 0.039174 -0.250904 0.855482 -0.452988
-0.266382 0.680322 0.039174 0.547179 0.497632 -0.673021
-0.264669 0.692189 0.039174 0.250761 0.611176 -0.750722
-0.037270 0.691929 0.039174 0.099107 0.885523 0.453901
-0.037539 0.692189 0.039174 0.071943 0.940239 0.332830
-0.030724 0.679447 0.039174 -0.039777 0.913786 0.404244
0.054375 0.691422 0.039174 -0.071303 0.894586 -0.441172
0.060921 0.692189 0.039026 -0.216118 0.973171 -0.078936
0.060881 0.692189 0.039174 -0.108486 0.993559 -0.032740
-0.259836 0.709413 0.039174 0.099747 0.797897 -0.594484
-0.258393 0.712345 0.039174 0.510059 0.377520 -0.772864
-0.043816 0.709740 0.039174 0.082870 0.888062 0.452193
-0.047872 0.712345 0.039174 0.312809 0.938788 0.144317
0.060921 0.692192 0.039174 -0.016583 0.992441 -0.121594
0.067467 0.710717 0.039174 -0.337571 0.888309 -0.311373
0.074013 0.712345 0.039014 -0.372538 0.580342 -0.724168
0.073955 0.712345 0.039174 -0.949719 0.310457 -0.040628
-0.279474 0.732501 0.031640 0.542488 -0.724865 -0.424591
-0.272928 0.732501 0.036998 0.685119 -0.654005 -0.320764
-0.266382 0.732501 0.039154 0.893367 -0.355352 -0.274993
-0.266337 0.732501 0.039174 0.953499 -0.197755 -0.227449
-0.259836 0.725630 0.039174 0.390909 -0.530817 -0.751947
-0.056908 0.732501 0.037336 -0.025305 0.810873 0.584674
-0.056908 0.732385 0.039174 -0.081173 0.592419 0.801530
-0.056959 0.732501 0.039174 -0.036261 0.626746 0.778380
-0.050362 0.729217 0.039174 0.032473 0.898370 0.438037
0.074013 0.712459 0.039174 -0.524224 0.043580 -0.850464
0.080559 0.732420 0.039174 -0.369921 0.926398 -0.070323
0.087105 0.732501 0.031173 -0.691937 0.719366 -0.061120
0.080819 0.732501 0.039174 -0.546853 0.831136 -0.100819
-0.279474 0.752657 0.031898 0.938248 0.163226 -0.305037
-0.272928 0.752657 0.033761 0.970417 0.048523 -0.236510
-0.266382 0.752657 0.035607 0.967982 0.183993 -0.170756
-0.259836 0.743166 0.039174 0.615014 0.599376 -0.512354
-0.259836 0.752657 0.036892 0.942705 -0.147765 -0.299119
-0.257385 0.752657 0.039174 0.188852 0.630818 -0.752598
-0.070000 0.752633 0.039174 -0.181228 0.953255 0.241786
-0.070016 0.752657 0.039174 -0.338483 0.504130 0.794533
-0.063454 0.752439 0.039174 -0.114507 0.901039 0.418349
0.087105 0.749446 0.039174 -0.497089 0.846165 -0.192112
0.093651 0.752657 0.038414 -0.310437 0.871866 -0.378786
0.093063 0.752657 0.039174 -0.840976 0.537469 -0.062336
0.100197 0.752657 0.031126 -0.880594 0.472119 -0.040721
-0.272928 0.772814 0.033431 0.422322 -0.889267 -0.175636
-0.266382 0.772814 0.036451 0.274164 -0.943711 -0.185051
-0.264203 0.772814 0.039174 -0.129244 -0.948234 -0.290082
-0.259836 0.757206 0.039174 0.036828 -0.834441 -0.549865
-0.083092 0.772814 0.031337 -0.691150 0.718044 0.082001
-0.077130 0.772814 0.039174 -0.280278 0.955872 0.088047
-0.076546 0.772665 0.039174 -0.371459 0.926283 0.063382
0.093651 0.754036 0.039174 -0.782528 0.186663 -0.593976
0.100197 0.772457 0.039174 -0.414654 0.909372 -0.033227
0.106743 0.772814 0.035634 -0.217029 0.925098 -0.311597
0.102545 0.772814 0.039174 -0.644144 0.764190 -0.033039
-0.312204 0.784788 0.039174 -0.274834 -0.958505 0.075721
-0.318750 0.784557 0.039174 -0.287712 -0.957625 0.013296
-0.305658 0.787084 0.039174 -0.604543 -0.794670 0.055025
-0.299112 0.787875 0.039174 -0.714512 -0.685560 -0.139568
-0.292566 0.781470 0.039174 -0.544749 -0.818412 -0.182897
-0.286020 0.777923 0.039174 -0.248537 -0.962497 -0.108763
-0.279474 0.776281 0.039174 -0.284594 -0.956385 -0.065831
-0.272928 0.775036 0.039174 -0.097116 -0.993385 -0.061268
-0.266382 0.773811 0.039174 -0.092436 -0.991286 -0.093851
-0.083092 0.792970 0.038238 -0.040839 0.997215 0.062398
-0.082696 0.792970 0.039174 -0.347198 0.555353 0.755670
0.106743 0.789404 0.039174 -0.841596 0.518406 -0.151564
0.113289 0.792970 0.034896 -0.303477 0.915243 -0.265015
0.107718 0.792970 0.039174 -0.923296 0.378821 -0.063391
-0.318750 0.809863 0.039174 -0.752829 0.636160 -0.168966
-0.318750 0.813126 0.037922 0.964815 0.017159 -0.262371
-0.315009 0.813126 0.039174 -0.964454 0.071716 -0.254332
-0.089638 0.813126 0.036283 -0.144996 0.953688 0.263544
-0.088702 0.813126 0.039174 -0.773307 0.301781 0.557606
-0.083092 0.794559 0.039174 -0.598249 0.497618 0.628072
0.113289 0.813126 0.038304 -0.391773 0.722060 -0.570213
0.112348 0.813126 0.039174 -0.594856 0.179260 -0.783590
0.119835 0.813126 0.031270 -0.768546 0.234113 -0.595423
-0.318750 0.815554 0.039174 -0.524145 -0.840804 -0.135357
-0.089638 0.833282 0.035722 -0.497868 0.188039 0.846622
-0.088681 0.833282 0.039174 -0.163253 0.144900 0.975885
0.113289 0.833282 0.038133 -0.718515 -0.236891 -0.653926
0.112249 0.833282 0.039174 -0.640048 -0.516385 -0.568934
-0.312204 0.853439 0.034031 -0.944238 0.307193 -0.118520
-0.318750 0.853439 0.034705 -0.964016 0.253147 -0.081171
-0.305658 0.853439 0.032634 -0.896844 0.392164 -0.204642
-0.088100 0.853439 0.039174 -0.099765 -0.994955 0.010573
0.100440 0.853439 0.039174 -0.105593 -0.993020 -0.052543
0.106743 0.845912 0.039174 -0.964945 -0.225395 -0.134455
-0.312204 0.873595 0.036794 -0.932979 0.358035 -0.036905
-0.318750 0.873595 0.037012 -0.905841 0.422976 -0.023320
-0.305658 0.873595 0.036188 -0.926872 0.365004 -0.087637
-0.299112 0.873595 0.035023 -0.840127 0.530965 -0.110735
-0.292566 0.873595 0.033875 -0.487390 0.851110 -0.195099
-0.083092 0.853579 0.039174 -0.016179 -0.999606 0.022931
-0.076546 0.869514 0.039174 -0.567125 -0.594671 0.569856
-0.076546 0.873595 0.031956 -0.114212 -0.992852 0.034639
-0.071930 0.873595 0.039174 -0.341903 -0.939685 0.009715
0.088297 0.873595 0.039174 -0.087441 -0.996073 -0.013910
0.093651 0.866446 0.039174 -0.839823 -0.415500 -0.349367
0.100197 0.853460 0.039174 -0.032496 -0.998283 -0.048726
-0.318750 0.883533 0.039174 -0.698741 0.711483 -0.074524
-0.312204 0.885874 0.039174 -0.685751 0.716298 -0.129085
-0.305658 0.892075 0.039174 -0.667871 0.703287 -0.243588
-0.299112 0.893751 0.038255 -0.836454 0.540692 -0.089421
-0.303896 0.893751 0.039174 -0.353688 0.915351 -0.192451
-0.292566 0.893751 0.038218 -0.845475 0.533865 -0.012660
-0.286020 0.893751 0.037912 -0.854348 0.517441 -0.048418
-0.279474 0.893751 0.036981 -0.720066 0.687041 -0.097363
-0.272928 0.893751 0.035507 -0.535281 0.843270 -0.048687
-0.266382 0.893751 0.036365 -0.550429 0.831456 0.075551
-0.259836 0.893751 0.037681 -0.631434 0.771405 0.078900
-0.253289 0.893751 0.038649 -0.679919 0.729953 0.069851
-0.248042 0.893751 0.039174 -0.404603 0.911516 0.073716
-0.246743 0.893430 0.039174 -0.227451 0.972300 0.053832
-0.240197 0.892907 0.039174 -0.484229 0.874938 0.002281
-0.233651 0.893225 0.039174 -0.435825 0.898474 -0.052929
-0.227105 0.893751 0.037756 -0.344249 0.932995 -0.104940
-0.231954 0.893751 0.039174 -0.535347 0.837743 -0.107658
-0.220559 0.893751 0.034615 -0.389613 0.906724 -0.161409
-0.070000 0.873621 0.039174 -0.004603 -0.999977 0.004921
-0.063454 0.873747 0.039174 -0.010163 -0.999904 0.009394
-0.056908 0.874023 0.039174 -0.023682 -0.998418 0.050990
-0.050362 0.876709 0.039174 -0.530427 -0.683896 0.500933
-0.043816 0.893208 0.039174 -0.316420 -0.902432 0.292396
-0.043816 0.893751 0.032206 -0.095049 -0.995019 0.030062
-0.037759 0.893751 0.039174 -0.247166 -0.968661 0.024606
0.074013 0.893751 0.037119 -0.070337 -0.994613 -0.076144
0.071420 0.893751 0.039174 -0.120918 -0.992652 -0.004592
0.074013 0.890680 0.039174 -0.456869 -0.859835 -0.227934
0.080559 0.875543 0.039174 -0.265113 -0.924489 -0.273927
0.087105 0.873622 0.039174 -0.007955 -0.999899 -0.011806
-0.299112 0.895742 0.039174 -0.408994 0.909384 -0.075795
-0.292566 0.896376 0.039174 -0.369697 0.928276 -0.040348
-0.286020 0.897499 0.039174 -0.402008 0.913272 -0.065763
-0.279474 0.899049 0.039174 -0.369096 0.927019 -0.066363
-0.272928 0.900343 0.039174 -0.273245 0.961831 -0.014764
-0.266382 0.900014 0.039174 -0.578913 0.813982 0.047885
-0.259836 0.898403 0.039174 -0.555135 0.825032 0.105577
-0.253289 0.895229 0.039174 -0.270567 0.955782 0.115213
-0.227105 0.896913 0.039174 -0.853469 0.494595 -0.164212
-0.220559 0.906318 0.039174 -0.876891 0.442986 -0.186614
-0.214013 0.913638 0.039174 -0.481881 0.869912 -0.105090
-0.207467 0.913908 0.036127 -0.467357 0.838350 -0.280620
-0.213692 0.913908 0.039174 -0.737662 0.659584 -0.144234
-0.037270 0.893784 0.039174 -0.022978 -0.999616 0.015473
-0.030724 0.893930 0.039174 -0.002995 -0.999985 0.004641
-0.024178 0.893960 0.039174 -0.350275 -0.935675 0.042656
-0.017632 0.895810 0.039174 -0.394037 -0.880078 0.264949
-0.011086 0.903093 0.039174 -0.371874 -0.903392 0.213525
-0.004540 0.907059 0.039174 -0.406154 -0.897190 0.173461
0.002006 0.910939 0.039174 -0.412736 -0.900356 0.137872
0.008553 0.912963 0.039174 -0.376485 -0.924956 0.052118
0.008553 0.913908 0.031258 -0.068923 -0.997621 0.001458
0.015099 0.912704 0.039174 -0.413444 -0.909057 -0.051756
0.015099 0.913908 0.031218 -0.088197 -0.996101 -0.002047
0.021645 0.910596 0.039174 -0.425359 -0.894007 -0.140789
0.021645 0.913908 0.031061 -0.194672 -0.980867 -0.001666
0.028191 0.906367 0.039174 -0.554528 -0.801436 -0.224051
0.034737 0.897832 0.039174 -0.641980 -0.700783 -0.311068
0.034737 0.913908 0.031059 -0.403569 -0.914949 0.001024
0.041283 0.894285 0.039174 -0.689650 -0.721196 -0.065265
0.041283 0.913908 0.031068 -0.610931 -0.791668 -0.004992
0.047829 0.894215 0.039174 -0.155395 -0.987831 -0.006531
0.054375 0.894072 0.039174 -0.012530 -0.999907 -0.005467
0.060921 0.893968 0.039174 -0.011308 -0.999916 -0.006368
0.067467 0.893800 0.039174 -0.008752 -0.999940 -0.006540
-0.207467 0.934064 0.037809 -0.970699 -0.034306 -0.237838
-0.212880 0.934064 0.039174 -0.982033 -0.110679 -0.152847
-0.200921 0.934064 0.034687 -0.833163 0.230932 -0.502504
-0.312204 0.954220 0.038192 -0.786534 -0.595704 -0.162789
-0.317046 0.954220 0.039174 -0.758564 -0.635241 -0.145085
-0.312204 0.951382 0.039174 -0.621547 -0.764231 -0.172137
-0.305658 0.945419 0.039174 -0.587171 -0.780668 -0.213979
-0.305658 0.954220 0.036232 -0.732885 -0.667958 -0.129273
-0.299112 0.941429 0.039174 -0.599535 -0.789611 -0.130660
-0.299112 0.954220 0.035033 -0.762241 -0.644731 -0.057540
-0.292566 0.940270 0.039174 -0.640222 -0.767911 -0.020691
-0.292566 0.954220 0.034767 -0.809503 -0.586102 0.034478
-0.286020 0.941273 0.039174 -0.661577 -0.749344 0.028263
-0.286020 0.954220 0.035423 -0.832184 -0.553301 0.036435
-0.279474 0.941478 0.039174 -0.692761 -0.721104 0.009516
-0.279474 0.954220 0.035639 -0.874544 -0.482718 0.046436
-0.272928 0.941849 0.039174 -0.710317 -0.702415 0.045419
-0.272928 0.954220 0.036111 -0.896538 -0.432927 0.093771
-0.266382 0.945107 0.039174 -0.738945 -0.658092 0.144482
-0.266382 0.954220 0.037121 -0.871829 -0.468561 0.142707
-0.259836 0.951855 0.039174 -0.721776 -0.657865 0.215065
-0.259836 0.954220 0.038639 -0.862000 -0.479598 0.164139
-0.257569 0.954220 0.039174 -0.718859 -0.662939 0.209175
-0.220559 0.954220 0.037948 -0.806565 -0.508954 -0.300697
-0.222753 0.954220 0.039174 -0.717868 -0.570191 -0.399434
-0.220559 0.949481 0.039174 -0.812060 -0.491105 -0.315237
-0.214013 0.936148 0.039174 -0.854667 -0.387101 -0.345972
-0.214013 0.954220 0.035384 -0.682755 -0.689892 -0.240613
-0.207467 0.954220 0.032199 -0.614088 -0.707865 -0.349032
-0.318750 0.974376 0.034491 -0.304458 -0.937176 -0.170314
-0.318750 0.955637 0.039174 -0.793409 -0.586461 -0.162991
-0.272928 0.974376 0.031708 -0.097585 -0.995099 0.015962
-0.266382 0.974376 0.032743 -0.089147 -0.995978 0.008993
-0.259836 0.974376 0.033366 -0.076959 -0.997033 0.001856
-0.253289 0.957538 0.039174 -0.720065 -0.677923 0.148078
-0.253289 0.974376 0.033181 -0.085662 -0.996295 0.007586
-0.246743 0.961533 0.039174 -0.685650 -0.717676 0.121759
-0.246743 0.974376 0.034428 -0.078363 -0.996879 0.009618
-0.240197 0.964484 0.039174 -0.667717 -0.736529 0.108070
-0.240197 0.974376 0.035326 -0.078426 -0.996867 0.010299
-0.233651 0.968330 0.039174 -0.624557 -0.779571 0.046888
-0.233651 0.974376 0.036727 -0.073823 -0.997239 -0.008052
-0.227105 0.961939 0.039174 -0.760327 -0.606554 -0.232367
-0.227105 0.974376 0.034295 -0.120863 -0.991704 -0.043766
-0.017632 0.994533 0.031049 -0.467090 0.883100 0.044281
-0.174737 -0.904092 0.047316 0.069061 0.979421 -0.189642
-0.180048 -0.920313 0.047316 0.123435 0.178453 -0.976175
-0.168191 -0.901640 0.047316 -0.045142 0.998767 -0.020664
-0.161645 -0.920313 0.040243 -0.816878 0.090062 0.569736
-0.161645 -0.902811 0.047316 -0.127329 0.985321 0.113712
-0.155944 -0.920313 0.047316 -0.570519 0.106562 0.814342
-0.083092 -0.900156 0.039216 0.999749 -0.021402 -0.006599
-0.076546 -0.900156 0.039284 0.999581 -0.026480 -0.011655
-0.070000 -0.920313 0.039210 0.999800 -0.019216 -0.005611
-0.070000 -0.900156 0.039431 0.998474 -0.050448 -0.022449
-0.063454 -0.920313 0.039252 0.999553 -0.029722 -0.003302
-0.063454 -0.900156 0.039714 0.996308 -0.077601 -0.036715
-0.056908 -0.920313 0.039266 0.999422 -0.033998 -0.000000
-0.056908 -0.900156 0.040061 0.989982 -0.135578 -0.039429
-0.050362 -0.920313 0.039260 0.999632 -0.027040 0.002302
-0.050362 -0.900156 0.040335 0.990397 -0.138224 -0.002732
-0.043816 -0.920313 0.039235 0.999696 -0.024271 0.004318
-0.043816 -0.900156 0.040063 0.993044 -0.037266 0.111691
-0.037270 -0.920313 0.039200 0.999361 -0.017247 0.031297
-0.037270 -0.900156 0.039404 0.999145 -0.034486 0.022807
-0.030724 -0.900156 0.039323 0.999466 -0.032116 0.005963
-0.024178 -0.900156 0.039302 0.998351 -0.057387 0.001490
-0.017632 -0.900156 0.039297 0.996251 -0.086480 -0.002270
-0.011086 -0.900156 0.039360 0.982282 -0.187258 -0.007478
-0.004540 -0.900156 0.039425 0.925390 -0.379010 0.002065
0.002006 -0.900156 0.039325 0.860538 -0.509346 0.006454
0.008553 -0.900156 0.039290 0.809225 -0.587485 0.003999
0.015099 -0.900156 0.039243 0.763212 -0.646046 0.011480
0.257302 -0.920313 0.043729 -0.260069 0.851924 -0.454522
0.257302 -0.917529 0.047316 -0.431678 0.759536 -0.486579
0.255884 -0.920313 0.047316 -0.553784 0.690298 -0.465630
0.263848 -0.908287 0.047316 -0.402169 0.882510 -0.243796
0.270395 -0.904381 0.047316 -0.363133 0.919677 -0.149431
0.276941 -0.901674 0.047316 -0.370384 0.927339 -0.053472
0.283487 -0.902306 0.047316 -0.402141 0.914203 0.050163
0.290033 -0.904050 0.047316 -0.430062 0.892358 0.136907
0.296579 -0.920313 0.039868 -0.517385 0.848149 0.113820
0.296579 -0.909263 0.047316 -0.465508 0.856563 0.222714
0.303125 -0.920313 0.041606 -0.448520 0.888168 0.099935
0.303125 -0.913746 0.047316 -0.538161 0.827740 0.158838
-0.181283 -0.880000 0.041759 0.675681 -0.676985 -0.291799
-0.174737 -0.880000 0.042835 0.753461 -0.654787 -0.059587
-0.168191 -0.880000 0.042979 0.759776 -0.648748 0.043210
-0.161645 -0.880000 0.040893 0.605424 -0.768511 0.207009
-0.109276 -0.880000 0.039183 0.999743 -0.021892 -0.005838
-0.102730 -0.880000 0.039234 0.999837 -0.017175 -0.005650
-0.096184 -0.880000 0.039293 0.999701 -0.021409 -0.011792
-0.089638 -0.880000 0.039506 0.997053 -0.062820 -0.044044
-0.083092 -0.880000 0.040521 0.961825 -0.224738 -0.156158
-0.076546 -0.880000 0.042247 0.623964 -0.767954 -0.144623
-0.070000 -0.880000 0.044539 0.387538 -0.921845 0.004115
-0.063454 -0.880000 0.042109 0.852367 -0.461317 0.246287
-0.056908 -0.880000 0.040412 0.989413 0.018993 0.143878
-0.050362 -0.880000 0.039675 0.998097 0.040050 0.046892
-0.043816 -0.880000 0.039451 0.999598 0.022483 0.017255
-0.037270 -0.880000 0.039359 0.999852 0.016244 0.005672
-0.030724 -0.880000 0.039343 0.999995 0.002719 -0.001785
-0.024178 -0.880000 0.039405 0.999980 0.003093 -0.005599
-0.017632 -0.880000 0.039421 0.999935 -0.009038 -0.006919
-0.011086 -0.880000 0.039698 0.997075 -0.061829 -0.044918
-0.004540 -0.880000 0.040306 0.954820 -0.292470 -0.052727
0.002006 -0.880000 0.040362 0.923459 -0.383606 -0.008392
0.008553 -0.880000 0.040457 0.870394 -0.492299 0.007413
0.015099 -0.880000 0.040255 0.870196 -0.491203 0.038443
0.021645 -0.880000 0.039839 0.944587 -0.327739 0.018539
0.028191 -0.880000 0.039938 0.929270 -0.368720 -0.022437
0.034737 -0.880000 0.040307 0.858605 -0.511194 -0.038438
0.041283 -0.880000 0.040644 0.812617 -0.581409 -0.040210
0.047829 -0.880000 0.041174 0.656455 -0.754330 -0.007252
0.054375 -0.880000 0.040338 0.839398 -0.540424 0.057904
0.060921 -0.880000 0.039988 0.862290 -0.504078 0.048592
-0.187829 -0.859844 0.044104 0.785381 -0.514662 -0.343949
-0.181283 -0.859844 0.047099 0.824365 -0.506892 -0.251957
-0.180708 -0.859844 0.047316 0.748911 -0.605416 -0.269451
-0.174737 -0.867781 0.047316 0.721537 -0.685660 -0.096204
-0.168191 -0.869259 0.047316 0.524610 -0.851142 -0.018473
-0.161645 -0.869392 0.047316 0.482475 -0.875549 -0.025117
-0.155099 -0.870168 0.047316 0.357329 -0.917085 0.176836
-0.148553 -0.859844 0.043950 0.295643 -0.833396 0.466954
-0.149934 -0.859844 0.047316 0.356752 -0.744281 0.564601
-0.128915 -0.859844 0.040431 0.361523 -0.914971 -0.179244
-0.122368 -0.859844 0.044189 0.496917 -0.857503 -0.133271
-0.115822 -0.859844 0.045418 0.362633 -0.921420 0.139581
-0.109276 -0.859844 0.040722 0.780732 -0.587714 0.212247
-0.102730 -0.859844 0.039609 0.976425 -0.211138 0.044885
-0.096184 -0.859844 0.039478 0.998226 -0.059330 -0.004939
-0.089638 -0.859844 0.039621 0.999370 -0.017378 -0.030934
-0.083092 -0.859844 0.040166 0.996367 0.039828 -0.075281
-0.076546 -0.859844 0.040950 0.990594 0.111013 -0.080003
-0.070000 -0.859844 0.041349 0.991025 0.130287 0.029899
-0.063454 -0.859844 0.040599 0.991126 0.072600 0.111349
-0.056908 -0.859844 0.039841 0.996937 0.018850 0.075900
-0.050362 -0.859844 0.039433 0.999646 0.003563 0.026350
-0.043816 -0.859844 0.039306 0.999813 0.015383 0.011694
-0.037270 -0.859844 0.039225 0.999950 0.009998 -0.000573
-0.030724 -0.859844 0.039300 0.999882 0.014363 -0.005505
-0.024178 -0.859844 0.039306 0.999999 0.000103 -0.001347
-0.017632 -0.859844 0.039337 0.999940 0.006104 -0.009125
-0.011086 -0.859844 0.039711 0.997826 0.033414 -0.056800
-0.004540 -0.859844 0.040375 0.996807 0.002526 -0.079807
0.002006 -0.859844 0.040849 0.997788 -0.054314 -0.038318
0.008553 -0.859844 0.040949 0.993349 -0.115137 -0.000530
0.015099 -0.859844 0.040840 0.983799 -0.177306 0.026488
0.021645 -0.859844 0.040494 0.980963 -0.193753 -0.013057
0.028191 -0.859844 0.041311 0.897968 -0.412678 -0.152810
0.034737 -0.859844 0.045959 0.347662 -0.856599 -0.381274
0.035754 -0.859844 0.047316 0.988110 -0.146743 -0.045881
0.041283 -0.863326 0.047316 0.990380 -0.137234 -0.017754
0.047829 -0.864944 0.047316 0.988621 -0.150332 0.005378
0.054375 -0.863172 0.047316 0.977802 -0.208364 0.022102
0.060921 -0.860831 0.047316 0.962783 -0.268083 0.034360
0.063885 -0.859844 0.047316 0.959096 -0.276784 0.059371
-0.318750 -0.839687 0.041297 0.503329 -0.749813 0.429466
-0.200921 -0.839687 0.041480 0.496535 -0.740556 -0.452802
-0.194375 -0.839687 0.046332 0.732760 -0.593077 -0.333651
-0.193039 -0.839687 0.047316 0.652544 -0.640855 -0.404341
-0.187829 -0.849869 0.047316 0.718819 -0.628663 -0.296787
-0.181283 -0.859073 0.047316 0.665039 -0.687458 -0.291761
-0.148553 -0.857066 0.047316 0.375673 -0.891583 0.252883
-0.142007 -0.854213 0.047316 0.299226 -0.954156 0.007022
-0.135461 -0.855094 0.047316 0.247810 -0.967936 -0.041108
-0.128915 -0.855948 0.047316 0.255800 -0.966481 -0.021914
-0.122368 -0.856077 0.047316 0.511068 -0.858263 0.046835
-0.115822 -0.849332 0.047316 0.918796 -0.153785 0.363543
-0.115112 -0.839687 0.047316 0.945170 0.029155 0.325274
-0.109276 -0.839687 0.043339 0.924636 -0.123506 0.360270
-0.102730 -0.839687 0.041340 0.978256 -0.035073 0.204415
-0.096184 -0.839687 0.039970 0.995012 -0.011152 0.099127
-0.089638 -0.839687 0.039622 0.987676 0.156129 0.010940
-0.083092 -0.839687 0.039739 0.969045 0.245137 -0.029308
-0.076546 -0.839687 0.040272 0.934693 0.350959 -0.056366
-0.070000 -0.839687 0.040662 0.911525 0.411245 -0.000194
-0.063454 -0.839687 0.040276 0.936818 0.345492 0.054847
-0.056908 -0.839687 0.039829 0.966742 0.250794 0.050118
-0.050362 -0.839687 0.039490 0.994417 0.096793 0.042018
-0.030724 -0.839687 0.039185 0.970215 0.241880 -0.013329
-0.024178 -0.839687 0.039339 0.941627 0.336513 -0.009859
-0.017632 -0.839687 0.039336 0.933318 0.359029 -0.003849
-0.011086 -0.839687 0.039483 0.904902 0.424959 -0.023707
-0.004540 -0.839687 0.040206 0.669379 0.739485 -0.071371
0.002006 -0.839687 0.041363 0.235683 0.971299 -0.032122
0.008553 -0.839687 0.042032 0.116463 0.993113 -0.012792
0.015099 -0.839687 0.043584 0.051760 0.998655 -0.003058
0.021645 -0.839687 0.042636 0.059815 0.998208 -0.001741
0.028191 -0.839687 0.044124 0.049224 0.998652 -0.016464
0.032625 -0.839687 0.047316 0.601463 0.798658 -0.019668
0.034737 -0.854252 0.047316 0.999468 -0.014342 -0.029289
0.067467 -0.855035 0.047316 0.980353 -0.182153 0.075688
0.074013 -0.847077 0.047316 0.991771 -0.121772 0.039516
0.080559 -0.841613 0.047316 0.993422 -0.110356 0.030553
0.082659 -0.839687 0.047316 0.534284 0.845198 0.013463
-0.318750 -0.834438 0.047316 0.356415 -0.917188 0.178140
-0.312204 -0.829502 0.047316 0.378616 -0.887201 0.263674
-0.305658 -0.819531 0.047282 0.669374 -0.242128 0.702362
-0.305685 -0.819531 0.047316 0.799586 -0.027540 0.599919
-0.299112 -0.819531 0.040328 0.787675 0.000993 0.616090
-0.253289 -0.819531 0.039488 0.997130 -0.074694 -0.012329
-0.207467 -0.819531 0.043571 0.801188 -0.025386 -0.597874
-0.203981 -0.819531 0.047316 0.741918 -0.092225 -0.664118
-0.200921 -0.829541 0.047316 0.683071 -0.621593 -0.383453
