ply
format ascii 1.0
element vertex 818
property float x
property float y
property float z
property float nx
property float ny
property float nz
end_header
-0.242104 0.286449 -0.221277 -0.492402 -0.870039 -0.023939
-0.221052 0.285868 -0.221277 -0.491766 -0.870387 -0.024351
-0.199999 0.285261 -0.221277 -0.491930 -0.870284 -0.024723
-0.178946 0.284682 -0.221277 -0.492036 -0.870237 -0.024259
-0.978947 0.307184 -0.221277 -0.492204 -0.870130 -0.024673
-1.000000 0.307781 -0.221277 -0.491788 -0.870365 -0.024683
-0.957895 0.306587 -0.221277 -0.492717 -0.869849 -0.024336
-0.936842 0.306016 -0.221277 -0.491890 -0.870321 -0.024196
-0.915789 0.305398 -0.221277 -0.492409 -0.869993 -0.025404
0.915792 0.242107 -0.214329 -0.492296 -0.870085 -0.024448
0.910664 0.242107 -0.214245 -0.491998 -0.870257 -0.024312
0.915792 0.241964 -0.214245 -0.491636 -0.870459 -0.024406
0.936845 0.241370 -0.214245 -0.492124 -0.870188 -0.024218
0.936845 0.242107 -0.214680 -0.492132 -0.870185 -0.024172
0.957897 0.240792 -0.214245 -0.491964 -0.870270 -0.024514
0.957897 0.242107 -0.215023 -0.491713 -0.870406 -0.024723
0.978950 0.240184 -0.214245 -0.491471 -0.870544 -0.024698
0.978950 0.242107 -0.215381 -0.491759 -0.870386 -0.024547
1.000003 0.239597 -0.214245 -0.491837 -0.870349 -0.024264
1.000003 0.242107 -0.215729 -0.492069 -0.870216 -0.024323
0.178949 0.263160 -0.214519 -0.492564 -0.869932 -0.024460
0.162584 0.263160 -0.214245 -0.491855 -0.870326 -0.024731
0.178949 0.262695 -0.214245 -0.491623 -0.870462 -0.024562
0.200001 0.262106 -0.214245 -0.491496 -0.870534 -0.024517
0.200001 0.263160 -0.214867 -0.492244 -0.870109 -0.024628
0.221054 0.261509 -0.214245 -0.491896 -0.870309 -0.024510
0.221054 0.263160 -0.215221 -0.492259 -0.870106 -0.024441
0.242107 0.260920 -0.214245 -0.491706 -0.870426 -0.024153
0.242107 0.263160 -0.215567 -0.492042 -0.870237 -0.024119
0.263160 0.260341 -0.214245 -0.491851 -0.870338 -0.024365
0.263160 0.263160 -0.215911 -0.491871 -0.870323 -0.024531
0.284212 0.259741 -0.214245 -0.492001 -0.870244 -0.024702
0.284212 0.263160 -0.216265 -0.491726 -0.870402 -0.024612
0.305265 0.259146 -0.214245 -0.491696 -0.870423 -0.024495
0.305265 0.263160 -0.216616 -0.491887 -0.870311 -0.024628
0.326318 0.258556 -0.214245 -0.492018 -0.870242 -0.024438
0.326318 0.263160 -0.216969 -0.491569 -0.870497 -0.024408
0.347370 0.257963 -0.214245 -0.491442 -0.870565 -0.024525
0.347370 0.263160 -0.217316 -0.491712 -0.870418 -0.024350
0.368423 0.257371 -0.214245 -0.491812 -0.870355 -0.024545
0.368423 0.263160 -0.217665 -0.492467 -0.869985 -0.024528
0.389475 0.256775 -0.214245 -0.491739 -0.870394 -0.024630
0.389475 0.263160 -0.218016 -0.492197 -0.870137 -0.024559
0.410528 0.256180 -0.214245 -0.491661 -0.870440 -0.024595
0.410528 0.263160 -0.218366 -0.492246 -0.870107 -0.024649
0.431581 0.255585 -0.214245 -0.491833 -0.870348 -0.024389
0.431581 0.263160 -0.218720 -0.492497 -0.869978 -0.024185
0.452633 0.255000 -0.214245 -0.491859 -0.870340 -0.024149
0.452633 0.263160 -0.219061 -0.491964 -0.870277 -0.024275
0.473686 0.254417 -0.214245 -0.492257 -0.870107 -0.024442
0.473686 0.263160 -0.219411 -0.491936 -0.870280 -0.024739
0.494739 0.253813 -0.214245 -0.491946 -0.870272 -0.024828
0.494739 0.263160 -0.219766 -0.491728 -0.870391 -0.024979
0.515791 0.253221 -0.214245 -0.491856 -0.870333 -0.024463
0.515791 0.263160 -0.220125 -0.492008 -0.870253 -0.024233
0.536844 0.252628 -0.214245 -0.491701 -0.870420 -0.024495
0.536844 0.263160 -0.220465 -0.491979 -0.870273 -0.024117
0.557897 0.252037 -0.214245 -0.492086 -0.870205 -0.024398
0.557897 0.263160 -0.220812 -0.491948 -0.870277 -0.024588
0.578949 0.251449 -0.214245 -0.491677 -0.870439 -0.024297
0.578949 0.263160 -0.221166 -0.491494 -0.870523 -0.024968
0.600002 0.250861 -0.214245 -0.491840 -0.870342 -0.024481
0.621055 0.250263 -0.214245 -0.491805 -0.870354 -0.024731
0.642107 0.249665 -0.214245 -0.491773 -0.870381 -0.024406
0.663160 0.249090 -0.214245 -0.491873 -0.870329 -0.024231
0.684213 0.248482 -0.214245 -0.491918 -0.870285 -0.024920
0.705265 0.247890 -0.214245 -0.491773 -0.870379 -0.024496
0.726318 0.247295 -0.214245 -0.491925 -0.870296 -0.024391
0.747371 0.246717 -0.214245 -0.491549 -0.870512 -0.024250
0.768423 0.246112 -0.214245 -0.492025 -0.870225 -0.024890
0.789476 0.245516 -0.214245 -0.491722 -0.870405 -0.024570
0.810529 0.244926 -0.214245 -0.491951 -0.870282 -0.024381
0.831581 0.244336 -0.214245 -0.491616 -0.870472 -0.024349
0.852634 0.243748 -0.214245 -0.491596 -0.870480 -0.024447
0.873687 0.243150 -0.214245 -0.491901 -0.870300 -0.024720
0.894739 0.242552 -0.214245 -0.492276 -0.870093 -0.024571
-0.578947 0.284212 -0.214353 -0.492288 -0.870092 -0.024331
-0.585297 0.284212 -0.214245 -0.492003 -0.870230 -0.025152
-0.578947 0.284029 -0.214245 -0.492171 -0.870150 -0.024632
-0.557894 0.283450 -0.214245 -0.492164 -0.870157 -0.024515
-0.557894 0.284212 -0.214695 -0.491708 -0.870408 -0.024758
-0.536842 0.282842 -0.214245 -0.492181 -0.870142 -0.024720
-0.536842 0.284212 -0.215055 -0.492005 -0.870246 -0.024579
-0.515789 0.282253 -0.214245 -0.491688 -0.870432 -0.024318
-0.515789 0.284212 -0.215402 -0.491834 -0.870350 -0.024292
-0.494736 0.281666 -0.214245 -0.492080 -0.870204 -0.024544
-0.494736 0.284212 -0.215750 -0.492024 -0.870233 -0.024631
-0.473684 0.281066 -0.214245 -0.491817 -0.870341 -0.024959
-0.473684 0.284212 -0.216104 -0.492020 -0.870228 -0.024880
-0.452631 0.280459 -0.214245 -0.491873 -0.870326 -0.024371
-0.452631 0.284212 -0.216460 -0.492064 -0.870219 -0.024308
-0.431578 0.279886 -0.214245 -0.492008 -0.870259 -0.024029
-0.431578 0.284212 -0.216803 -0.491905 -0.870311 -0.024245
-0.410526 0.279296 -0.214245 -0.492066 -0.870215 -0.024420
-0.410526 0.284212 -0.217151 -0.491841 -0.870351 -0.024089
-0.389473 0.278705 -0.214245 -0.492022 -0.870235 -0.024593
-0.389473 0.284212 -0.217494 -0.491836 -0.870337 -0.024716
-0.368420 0.278106 -0.214245 -0.492244 -0.870107 -0.024683
-0.368420 0.284212 -0.217853 -0.491976 -0.870257 -0.024741
-0.347368 0.277511 -0.214245 -0.491954 -0.870272 -0.024678
-0.347368 0.284212 -0.218204 -0.491998 -0.870247 -0.024660
-0.326315 0.276912 -0.214245 -0.491763 -0.870385 -0.024460
-0.326315 0.284212 -0.218557 -0.492097 -0.870202 -0.024286
-0.305262 0.276327 -0.214245 -0.492109 -0.870198 -0.024147
-0.305262 0.284212 -0.218901 -0.491912 -0.870303 -0.024413
-0.284210 0.275743 -0.214245 -0.491740 -0.870391 -0.024741
-0.284210 0.284212 -0.219253 -0.491557 -0.870483 -0.025134
-0.263157 0.275132 -0.214245 -0.491511 -0.870517 -0.024847
-0.263157 0.284212 -0.219615 -0.492118 -0.870187 -0.024372
-0.242104 0.274545 -0.214245 -0.491495 -0.870545 -0.024188
-0.242104 0.284212 -0.219957 -0.492196 -0.870157 -0.023880
-0.221052 0.273965 -0.214245 -0.491788 -0.870377 -0.024247
-0.221052 0.284212 -0.220298 -0.491605 -0.870469 -0.024641
-0.199999 0.273366 -0.214245 -0.492380 -0.870031 -0.024676
-0.199999 0.284212 -0.220656 -0.491934 -0.870291 -0.024379
-0.178946 0.272774 -0.214245 -0.491869 -0.870319 -0.024688
-0.178946 0.284212 -0.220999 -0.491992 -0.870258 -0.024414
-0.157894 0.272169 -0.214245 -0.491972 -0.870263 -0.024616
-0.136841 0.271587 -0.214245 -0.491941 -0.870294 -0.024150
-0.115788 0.270999 -0.214245 -0.491663 -0.870442 -0.024456
-0.094736 0.270401 -0.214245 -0.491841 -0.870338 -0.024591
-0.073683 0.269812 -0.214245 -0.492066 -0.870214 -0.024454
-0.052630 0.269217 -0.214245 -0.491650 -0.870449 -0.024479
-0.031578 0.268629 -0.214245 -0.492248 -0.870112 -0.024429
-0.010525 0.268033 -0.214245 -0.491602 -0.870472 -0.024624
0.010528 0.267437 -0.214245 -0.491797 -0.870361 -0.024657
0.031580 0.266840 -0.214245 -0.492154 -0.870167 -0.024354
0.052633 0.266267 -0.214245 -0.491745 -0.870404 -0.024154
0.073686 0.265659 -0.214245 -0.491538 -0.870502 -0.024846
0.094738 0.265072 -0.214245 -0.492305 -0.870084 -0.024282
0.115791 0.264484 -0.214245 -0.491648 -0.870447 -0.024578
0.136844 0.263877 -0.214245 -0.492300 -0.870072 -0.024803
0.157896 0.263293 -0.214245 -0.491823 -0.870354 -0.024381
-1.000000 0.305265 -0.219791 -0.491875 -0.870320 -0.024553
-0.978947 0.295284 -0.214245 -0.492014 -0.870246 -0.024387
-0.978947 0.305265 -0.220143 -0.491772 -0.870373 -0.024731
-1.000000 0.295872 -0.214245 -0.491853 -0.870340 -0.024283
-0.957895 0.294691 -0.214245 -0.491991 -0.870255 -0.024525
-0.957895 0.305265 -0.220497 -0.492383 -0.870048 -0.023965
-0.936842 0.294097 -0.214245 -0.492006 -0.870244 -0.024615
-0.936842 0.305265 -0.220833 -0.491901 -0.870296 -0.024849
-0.915789 0.293499 -0.214245 -0.491782 -0.870368 -0.024709
-0.915789 0.305265 -0.221198 -0.491923 -0.870270 -0.025313
-0.894737 0.292901 -0.214245 -0.491812 -0.870359 -0.024398
-0.873684 0.292323 -0.214245 -0.491712 -0.870423 -0.024135
-0.852631 0.291728 -0.214245 -0.491958 -0.870274 -0.024494
-0.831579 0.291140 -0.214245 -0.491805 -0.870362 -0.024438
-0.810526 0.290544 -0.214245 -0.491901 -0.870305 -0.024538
-0.789473 0.289955 -0.214245 -0.491497 -0.870539 -0.024320
-0.768421 0.289367 -0.214245 -0.491905 -0.870307 -0.024419
-0.747368 0.288771 -0.214245 -0.491650 -0.870439 -0.024822
-0.726315 0.288163 -0.214245 -0.492061 -0.870205 -0.024902
-0.705263 0.287573 -0.214245 -0.491620 -0.870469 -0.024364
-0.684210 0.286985 -0.214245 -0.491811 -0.870366 -0.024177
-0.663157 0.286406 -0.214245 -0.491945 -0.870289 -0.024223
-0.642105 0.285804 -0.214245 -0.491759 -0.870380 -0.024737
-0.621052 0.285215 -0.214245 -0.492035 -0.870239 -0.024198
-0.599999 0.284637 -0.214245 -0.491356 -0.870616 -0.024425
0.494739 0.242107 -0.207330 -0.491902 -0.870315 -0.024182
0.487751 0.242107 -0.207213 -0.491866 -0.870319 -0.024737
0.494739 0.241908 -0.207213 -0.491810 -0.870361 -0.024381
0.515791 0.241330 -0.207213 -0.491829 -0.870358 -0.024101
0.515791 0.242107 -0.207672 -0.491627 -0.870470 -0.024200
0.536844 0.240742 -0.207213 -0.491838 -0.870341 -0.024514
0.536844 0.242107 -0.208020 -0.491502 -0.870528 -0.024615
0.557897 0.240144 -0.207213 -0.491842 -0.870341 -0.024450
0.557897 0.242107 -0.208374 -0.491706 -0.870422 -0.024309
0.578949 0.239560 -0.207213 -0.491713 -0.870412 -0.024541
0.578949 0.242107 -0.208719 -0.491763 -0.870383 -0.024562
0.600002 0.238957 -0.207213 -0.491918 -0.870285 -0.024911
0.600002 0.242107 -0.209073 -0.492069 -0.870201 -0.024846
0.621055 0.238354 -0.207213 -0.491943 -0.870283 -0.024485
0.621055 0.242107 -0.209429 -0.492159 -0.870163 -0.024406
0.642107 0.237772 -0.207213 -0.492202 -0.870146 -0.024154
0.642107 0.242107 -0.209774 -0.491936 -0.870295 -0.024184
0.663160 0.237186 -0.207213 -0.491857 -0.870331 -0.024490
0.663160 0.242107 -0.210120 -0.491861 -0.870325 -0.024657
0.684213 0.236587 -0.207213 -0.491999 -0.870252 -0.024473
0.684213 0.242107 -0.210476 -0.491806 -0.870359 -0.024530
0.705265 0.236002 -0.207213 -0.491637 -0.870456 -0.024470
0.705265 0.242107 -0.210824 -0.491542 -0.870507 -0.024594
0.726318 0.235404 -0.207213 -0.492107 -0.870189 -0.024521
0.726318 0.242107 -0.211178 -0.491898 -0.870319 -0.024115
0.747371 0.234815 -0.207213 -0.491818 -0.870350 -0.024629
0.747371 0.242107 -0.211518 -0.491656 -0.870437 -0.024788
0.768423 0.234213 -0.207213 -0.491841 -0.870345 -0.024334
0.768423 0.242107 -0.211880 -0.491896 -0.870305 -0.024649
0.789476 0.233637 -0.207213 -0.491922 -0.870300 -0.024299
0.789476 0.242107 -0.212228 -0.491478 -0.870549 -0.024390
0.810529 0.233037 -0.207213 -0.491705 -0.870411 -0.024712
0.810529 0.242107 -0.212577 -0.491438 -0.870571 -0.024410
0.831581 0.232443 -0.207213 -0.491964 -0.870271 -0.024490
0.831581 0.242107 -0.212926 -0.491658 -0.870448 -0.024352
0.852634 0.231855 -0.207213 -0.491831 -0.870349 -0.024396
0.852634 0.242107 -0.213274 -0.491654 -0.870443 -0.024600
0.873687 0.231261 -0.207213 -0.491605 -0.870471 -0.024595
0.873687 0.242107 -0.213628 -0.491651 -0.870441 -0.024738
0.894739 0.230663 -0.207213 -0.492003 -0.870244 -0.024649
0.894739 0.242107 -0.213982 -0.491819 -0.870353 -0.024497
0.915792 0.230069 -0.207213 -0.491664 -0.870444 -0.024372
0.936845 0.229487 -0.207213 -0.491862 -0.870332 -0.024375
0.957897 0.228882 -0.207213 -0.491945 -0.870279 -0.024602
0.978950 0.228307 -0.207213 -0.491553 -0.870513 -0.024148
1.000003 0.227704 -0.207213 -0.491965 -0.870256 -0.024975
-0.242104 0.263160 -0.207511 -0.491977 -0.870279 -0.023943
-0.260188 0.263160 -0.207213 -0.491976 -0.870269 -0.024313
-0.242104 0.262654 -0.207213 -0.492182 -0.870160 -0.024069
-0.221052 0.262080 -0.207213 -0.491824 -0.870344 -0.024710
-0.221052 0.263160 -0.207851 -0.491281 -0.870641 -0.025052
-0.199999 0.261459 -0.207213 -0.491969 -0.870262 -0.024715
-0.199999 0.263160 -0.208219 -0.491932 -0.870292 -0.024394
-0.178946 0.260884 -0.207213 -0.491632 -0.870460 -0.024449
-0.178946 0.263160 -0.208558 -0.491526 -0.870513 -0.024674
-0.157894 0.260277 -0.207213 -0.491781 -0.870363 -0.024915
-0.157894 0.263160 -0.208918 -0.491832 -0.870338 -0.024738
-0.136841 0.259678 -0.207213 -0.491752 -0.870399 -0.024187
-0.136841 0.263160 -0.209268 -0.492157 -0.870176 -0.023992
-0.115788 0.259106 -0.207213 -0.491931 -0.870296 -0.024273
-0.115788 0.263160 -0.209608 -0.491784 -0.870370 -0.024593
-0.094736 0.258504 -0.207213 -0.491787 -0.870365 -0.024696
-0.094736 0.263160 -0.209965 -0.491902 -0.870301 -0.024656
-0.073683 0.257911 -0.207213 -0.491790 -0.870373 -0.024366
-0.073683 0.263160 -0.210315 -0.491934 -0.870292 -0.024330
-0.052630 0.257326 -0.207213 -0.491825 -0.870353 -0.024366
-0.052630 0.263160 -0.210662 -0.491586 -0.870485 -0.024487
-0.031578 0.256733 -0.207213 -0.491868 -0.870328 -0.024416
-0.031578 0.263160 -0.211014 -0.491844 -0.870342 -0.024377
-0.010525 0.256145 -0.207213 -0.491922 -0.870291 -0.024600
-0.010525 0.263160 -0.211361 -0.491553 -0.870499 -0.024629
0.010528 0.255543 -0.207213 -0.491763 -0.870386 -0.024446
0.010528 0.263160 -0.211716 -0.491527 -0.870513 -0.024666
0.031580 0.254962 -0.207213 -0.491725 -0.870411 -0.024319
0.031580 0.263160 -0.212068 -0.491780 -0.870387 -0.024045
0.052633 0.254366 -0.207213 -0.491682 -0.870427 -0.024623
0.052633 0.263160 -0.212407 -0.491660 -0.870440 -0.024593
0.073686 0.253772 -0.207213 -0.491748 -0.870386 -0.024732
0.073686 0.263160 -0.212766 -0.491873 -0.870316 -0.024732
0.094738 0.253163 -0.207213 -0.491724 -0.870400 -0.024725
0.094738 0.263160 -0.213116 -0.492190 -0.870150 -0.024252
0.115791 0.252585 -0.207213 -0.491991 -0.870266 -0.024108
0.115791 0.263160 -0.213461 -0.491662 -0.870432 -0.024821
0.136844 0.251993 -0.207213 -0.491867 -0.870329 -0.024376
0.136844 0.263160 -0.213821 -0.491569 -0.870495 -0.024443
0.157896 0.251408 -0.207213 -0.491960 -0.870272 -0.024530
0.157896 0.263160 -0.214166 -0.491127 -0.870744 -0.024485
0.178949 0.250803 -0.207213 -0.492313 -0.870063 -0.024852
0.200001 0.250208 -0.207213 -0.491691 -0.870428 -0.024404
0.221054 0.249627 -0.207213 -0.492239 -0.870124 -0.024176
0.242107 0.249035 -0.207213 -0.491805 -0.870364 -0.024371
0.263160 0.248450 -0.207213 -0.491521 -0.870521 -0.024497
0.284212 0.247841 -0.207213 -0.492036 -0.870211 -0.025145
0.305265 0.247237 -0.207213 -0.492018 -0.870243 -0.024418
0.326318 0.246671 -0.207213 -0.491705 -0.870435 -0.023881
0.347370 0.246071 -0.207213 -0.491560 -0.870492 -0.024763
0.368423 0.245474 -0.207213 -0.492368 -0.870038 -0.024629
0.389475 0.244880 -0.207213 -0.491885 -0.870315 -0.024495
0.410528 0.244291 -0.207213 -0.491667 -0.870440 -0.024459
0.431581 0.243694 -0.207213 -0.492055 -0.870217 -0.024558
0.452633 0.243106 -0.207213 -0.491785 -0.870373 -0.024458
0.473686 0.242507 -0.207213 -0.492280 -0.870085 -0.024764
-1.000000 0.284212 -0.207345 -0.491426 -0.870574 -0.024539
-0.978947 0.283395 -0.207213 -0.491749 -0.870386 -0.024722
-0.978947 0.284212 -0.207696 -0.491618 -0.870459 -0.024765
-1.000000 0.283988 -0.207213 -0.491929 -0.870289 -0.024547
-0.957895 0.282792 -0.207213 -0.491451 -0.870549 -0.024888
-0.957895 0.284212 -0.208052 -0.491877 -0.870308 -0.024914
-0.936842 0.282191 -0.207213 -0.491809 -0.870360 -0.024449
-0.936842 0.284212 -0.208408 -0.492185 -0.870151 -0.024323
-0.915789 0.281610 -0.207213 -0.491430 -0.870577 -0.024333
-0.915789 0.284212 -0.208751 -0.491560 -0.870500 -0.024484
-0.894737 0.281014 -0.207213 -0.491664 -0.870441 -0.024497
-0.894737 0.284212 -0.209105 -0.491799 -0.870367 -0.024387
-0.873684 0.280424 -0.207213 -0.491593 -0.870479 -0.024559
-0.873684 0.284212 -0.209451 -0.491986 -0.870258 -0.024508
-0.852631 0.279826 -0.207213 -0.491695 -0.870423 -0.024477
-0.852631 0.284212 -0.209804 -0.492059 -0.870217 -0.024481
-0.831579 0.279240 -0.207213 -0.491495 -0.870535 -0.024522
-0.831579 0.284212 -0.210152 -0.492115 -0.870181 -0.024645
-0.810526 0.278640 -0.207213 -0.491883 -0.870320 -0.024373
-0.810526 0.284212 -0.210506 -0.492126 -0.870188 -0.024170
-0.789473 0.278061 -0.207213 -0.491949 -0.870287 -0.024225
-0.789473 0.284212 -0.210848 -0.491797 -0.870370 -0.024316
-0.768421 0.277469 -0.207213 -0.492158 -0.870158 -0.024604
-0.768421 0.284212 -0.211198 -0.491993 -0.870253 -0.024547
-0.747368 0.276870 -0.207213 -0.491931 -0.870289 -0.024533
-0.747368 0.284212 -0.211549 -0.491538 -0.870501 -0.024854
-0.726315 0.276282 -0.207213 -0.492102 -0.870196 -0.024376
-0.726315 0.284212 -0.211907 -0.491404 -0.870585 -0.024559
-0.705263 0.275690 -0.207213 -0.491730 -0.870400 -0.024617
-0.705263 0.284212 -0.212255 -0.491339 -0.870626 -0.024399
-0.684210 0.275092 -0.207213 -0.491940 -0.870280 -0.024666
-0.684210 0.284212 -0.212605 -0.491808 -0.870367 -0.024205
-0.663157 0.274498 -0.207213 -0.491746 -0.870398 -0.024362
-0.663157 0.284212 -0.212949 -0.491830 -0.870346 -0.024515
-0.642105 0.273920 -0.207213 -0.491916 -0.870303 -0.024314
-0.642105 0.284212 -0.213303 -0.491975 -0.870263 -0.024562
-0.621052 0.273311 -0.207213 -0.491813 -0.870347 -0.024809
-0.621052 0.284212 -0.213652 -0.491925 -0.870305 -0.024050
-0.599999 0.272727 -0.207213 -0.492110 -0.870193 -0.024309
-0.599999 0.284212 -0.213994 -0.491895 -0.870306 -0.024641
-0.578947 0.272134 -0.207213 -0.492045 -0.870225 -0.024501
-0.557894 0.271542 -0.207213 -0.491569 -0.870490 -0.024656
-0.536842 0.270937 -0.207213 -0.492017 -0.870238 -0.024595
-0.515789 0.270362 -0.207213 -0.491683 -0.870441 -0.024085
-0.494736 0.269764 -0.207213 -0.492078 -0.870198 -0.024801
-0.473684 0.269162 -0.207213 -0.491997 -0.870250 -0.024582
-0.452631 0.268581 -0.207213 -0.491598 -0.870485 -0.024219
-0.431578 0.267985 -0.207213 -0.491949 -0.870275 -0.024644
-0.410526 0.267389 -0.207213 -0.492161 -0.870160 -0.024468
-0.389473 0.266806 -0.207213 -0.491761 -0.870387 -0.024437
-0.368420 0.266196 -0.207213 -0.492090 -0.870190 -0.024825
-0.347368 0.265616 -0.207213 -0.491784 -0.870383 -0.024115
-0.326315 0.265026 -0.207213 -0.491309 -0.870645 -0.024338
-0.305262 0.264439 -0.207213 -0.492052 -0.870227 -0.024297
-0.284210 0.263851 -0.207213 -0.491424 -0.870573 -0.024608
-0.263157 0.263242 -0.207213 -0.491975 -0.870256 -0.024786
0.831581 0.221054 -0.200485 -0.491931 -0.870287 -0.024588
0.813747 0.221054 -0.200181 -0.491793 -0.870349 -0.025154
0.831581 0.220538 -0.200181 -0.491928 -0.870283 -0.024793
0.852634 0.219951 -0.200181 -0.492270 -0.870102 -0.024330
0.852634 0.221054 -0.200833 -0.492239 -0.870120 -0.024331
0.873687 0.219361 -0.200181 -0.491772 -0.870373 -0.024711
0.873687 0.221054 -0.201180 -0.491875 -0.870312 -0.024821
0.894739 0.218755 -0.200181 -0.492029 -0.870233 -0.024539
0.894739 0.221054 -0.201539 -0.492302 -0.870082 -0.024411
0.915792 0.218174 -0.200181 -0.491927 -0.870290 -0.024548
0.915792 0.221054 -0.201883 -0.492035 -0.870228 -0.024596
0.936845 0.217568 -0.200181 -0.491965 -0.870264 -0.024709
0.936845 0.221054 -0.202237 -0.492279 -0.870089 -0.024634
0.957897 0.216978 -0.200181 -0.492196 -0.870148 -0.024208
0.957897 0.221054 -0.202589 -0.492443 -0.870011 -0.024087
0.978950 0.216397 -0.200181 -0.491924 -0.870301 -0.024247
0.978950 0.221054 -0.202929 -0.492062 -0.870214 -0.024537
1.000003 0.215805 -0.200181 -0.492222 -0.870126 -0.024463
1.000003 0.221054 -0.203285 -0.492316 -0.870058 -0.024986
0.073686 0.242107 -0.200325 -0.492111 -0.870185 -0.024595
0.065247 0.242107 -0.200181 -0.492093 -0.870179 -0.025155
0.073686 0.241863 -0.200181 -0.491944 -0.870274 -0.024793
0.094738 0.241275 -0.200181 -0.491543 -0.870503 -0.024705
0.094738 0.242107 -0.200672 -0.491949 -0.870269 -0.024851
0.115791 0.240668 -0.200181 -0.492038 -0.870233 -0.024349
0.115791 0.242107 -0.201031 -0.492352 -0.870063 -0.024066
0.136844 0.240097 -0.200181 -0.491787 -0.870385 -0.023982
0.136844 0.242107 -0.201367 -0.491878 -0.870330 -0.024110
0.157896 0.239508 -0.200181 -0.492089 -0.870194 -0.024704
0.157896 0.242107 -0.201716 -0.491667 -0.870427 -0.024905
0.178949 0.238901 -0.200181 -0.492238 -0.870118 -0.024433
0.178949 0.242107 -0.202076 -0.491759 -0.870393 -0.024271
0.200001 0.238326 -0.200181 -0.491670 -0.870434 -0.024616
0.200001 0.242107 -0.202417 -0.491470 -0.870541 -0.024804
0.221054 0.237711 -0.200181 -0.492023 -0.870237 -0.024532
0.221054 0.242107 -0.202778 -0.492264 -0.870109 -0.024200
0.242107 0.237138 -0.200181 -0.492188 -0.870157 -0.024014
0.242107 0.242107 -0.203117 -0.491917 -0.870311 -0.024003
0.263160 0.236549 -0.200181 -0.492074 -0.870199 -0.024839
0.263160 0.242107 -0.203462 -0.491800 -0.870347 -0.025079
0.284212 0.235936 -0.200181 -0.491953 -0.870262 -0.025030
0.284212 0.242107 -0.203827 -0.492132 -0.870161 -0.025019
0.305265 0.235338 -0.200181 -0.492122 -0.870194 -0.024036
0.305265 0.242107 -0.204181 -0.491954 -0.870296 -0.023789
0.326318 0.234773 -0.200181 -0.491954 -0.870283 -0.024266
0.326318 0.242107 -0.204514 -0.491836 -0.870347 -0.024375
0.347370 0.234164 -0.200181 -0.492101 -0.870185 -0.024793
0.347370 0.242107 -0.204870 -0.491892 -0.870303 -0.024779
0.368423 0.233574 -0.200181 -0.491940 -0.870281 -0.024611
0.368423 0.242107 -0.205224 -0.492086 -0.870198 -0.024637
0.389475 0.232973 -0.200181 -0.492087 -0.870197 -0.024647
0.389475 0.242107 -0.205575 -0.492063 -0.870218 -0.024371
0.410528 0.232383 -0.200181 -0.492057 -0.870223 -0.024334
0.410528 0.242107 -0.205922 -0.491845 -0.870336 -0.024574
0.431581 0.231799 -0.200181 -0.492031 -0.870242 -0.024184
0.431581 0.242107 -0.206275 -0.491744 -0.870399 -0.024385
0.452633 0.231211 -0.200181 -0.492326 -0.870067 -0.024476
0.452633 0.242107 -0.206622 -0.491629 -0.870457 -0.024606
0.473686 0.230612 -0.200181 -0.492034 -0.870225 -0.024723
0.473686 0.242107 -0.206976 -0.491688 -0.870419 -0.024750
0.494739 0.230014 -0.200181 -0.492066 -0.870211 -0.024572
0.515791 0.229426 -0.200181 -0.492140 -0.870175 -0.024375
0.536844 0.228833 -0.200181 -0.492166 -0.870154 -0.024592
0.557897 0.228232 -0.200181 -0.492377 -0.870034 -0.024597
0.578949 0.227650 -0.200181 -0.492113 -0.870196 -0.024134
0.600002 0.227062 -0.200181 -0.491912 -0.870299 -0.024552
0.621055 0.226457 -0.200181 -0.491986 -0.870252 -0.024718
0.642107 0.225872 -0.200181 -0.491899 -0.870312 -0.024332
0.663160 0.225277 -0.200181 -0.491812 -0.870359 -0.024421
0.684213 0.224693 -0.200181 -0.491889 -0.870324 -0.024135
0.705265 0.224112 -0.200181 -0.491921 -0.870293 -0.024583
0.726318 0.223488 -0.200181 -0.492202 -0.870116 -0.025198
0.747371 0.222908 -0.200181 -0.492096 -0.870207 -0.024118
0.768423 0.222318 -0.200181 -0.491814 -0.870356 -0.024469
0.789476 0.221721 -0.200181 -0.492457 -0.869995 -0.024381
0.810529 0.221147 -0.200181 -0.491378 -0.870607 -0.024318
-0.663157 0.263160 -0.200512 -0.492133 -0.870170 -0.024699
-0.682883 0.263160 -0.200181 -0.491947 -0.870274 -0.024741
-0.663157 0.262599 -0.200181 -0.492056 -0.870212 -0.024719
-0.642105 0.262001 -0.200181 -0.491906 -0.870303 -0.024523
-0.642105 0.263160 -0.200864 -0.492505 -0.869965 -0.024489
-0.621052 0.261412 -0.200181 -0.492024 -0.870241 -0.024358
-0.621052 0.263160 -0.201213 -0.492091 -0.870202 -0.024382
-0.599999 0.260823 -0.200181 -0.491986 -0.870260 -0.024438
-0.599999 0.263160 -0.201561 -0.491905 -0.870305 -0.024445
-0.578947 0.260230 -0.200181 -0.492241 -0.870121 -0.024238
-0.578947 0.263160 -0.201911 -0.492037 -0.870239 -0.024173
-0.557894 0.259650 -0.200181 -0.491913 -0.870300 -0.024495
-0.557894 0.263160 -0.202255 -0.491546 -0.870499 -0.024771
-0.536842 0.259045 -0.200181 -0.492077 -0.870200 -0.024745
-0.536842 0.263160 -0.202614 -0.492080 -0.870208 -0.024416
-0.515789 0.258452 -0.200181 -0.491945 -0.870284 -0.024420
-0.515789 0.263160 -0.202958 -0.491903 -0.870307 -0.024424
-0.494736 0.257864 -0.200181 -0.492190 -0.870139 -0.024635
-0.494736 0.263160 -0.203310 -0.491931 -0.870279 -0.024877
-0.473684 0.257260 -0.200181 -0.491962 -0.870273 -0.024475
-0.473684 0.263160 -0.203667 -0.492093 -0.870205 -0.024259
-0.452631 0.256679 -0.200181 -0.491936 -0.870297 -0.024109
-0.452631 0.263160 -0.204009 -0.491786 -0.870376 -0.024328
-0.431578 0.256094 -0.200181 -0.492004 -0.870245 -0.024601
-0.431578 0.263160 -0.204360 -0.491692 -0.870419 -0.024681
-0.410526 0.255489 -0.200181 -0.492132 -0.870174 -0.024566
-0.410526 0.263160 -0.204714 -0.491855 -0.870339 -0.024286
-0.389473 0.254906 -0.200181 -0.491938 -0.870286 -0.024471
-0.389473 0.263160 -0.205057 -0.491626 -0.870453 -0.024823
-0.368420 0.254305 -0.200181 -0.492135 -0.870171 -0.024613
-0.368420 0.263160 -0.205418 -0.491862 -0.870332 -0.024364
-0.347368 0.253718 -0.200181 -0.492077 -0.870211 -0.024350
-0.347368 0.263160 -0.205760 -0.491658 -0.870453 -0.024184
-0.326315 0.253124 -0.200181 -0.492190 -0.870144 -0.024477
-0.326315 0.263160 -0.206108 -0.491689 -0.870429 -0.024398
-0.305262 0.252535 -0.200181 -0.491955 -0.870281 -0.024317
-0.305262 0.263160 -0.206457 -0.492243 -0.870118 -0.024325
-0.284210 0.251947 -0.200181 -0.491955 -0.870273 -0.024612
-0.284210 0.263160 -0.206804 -0.491939 -0.870275 -0.024859
-0.263157 0.251338 -0.200181 -0.491966 -0.870262 -0.024773
-0.263157 0.263160 -0.207164 -0.492048 -0.870219 -0.024648
-0.242104 0.250751 -0.200181 -0.492049 -0.870226 -0.024394
-0.221052 0.250155 -0.200181 -0.491872 -0.870316 -0.024719
-0.199999 0.249556 -0.200181 -0.491969 -0.870270 -0.024415
-0.178946 0.248981 -0.200181 -0.492064 -0.870225 -0.024118
-0.157894 0.248381 -0.200181 -0.491938 -0.870283 -0.024586
-0.136841 0.247797 -0.200181 -0.491634 -0.870457 -0.024519
-0.115788 0.247184 -0.200181 -0.492373 -0.870030 -0.024840
-0.094736 0.246611 -0.200181 -0.491883 -0.870332 -0.023947
-0.073683 0.246015 -0.200181 -0.491757 -0.870380 -0.024767
-0.052630 0.245410 -0.200181 -0.492317 -0.870066 -0.024678
-0.031578 0.244830 -0.200181 -0.492155 -0.870171 -0.024202
-0.010525 0.244233 -0.200181 -0.492293 -0.870081 -0.024606
0.010528 0.243643 -0.200181 -0.491977 -0.870266 -0.024418
0.031580 0.243050 -0.200181 -0.492207 -0.870139 -0.024302
0.052633 0.242472 -0.200181 -0.491978 -0.870264 -0.024446
-0.978947 0.271490 -0.200181 -0.492114 -0.870180 -0.024701
-1.000000 0.272088 -0.200181 -0.491738 -0.870392 -0.024738
-0.957895 0.270896 -0.200181 -0.492255 -0.870105 -0.024519
-0.936842 0.270304 -0.200181 -0.492052 -0.870222 -0.024465
-0.915789 0.269712 -0.200181 -0.491786 -0.870374 -0.024404
-0.894737 0.269124 -0.200181 -0.491946 -0.870281 -0.024514
-0.873684 0.268521 -0.200181 -0.492216 -0.870123 -0.024671
-0.852631 0.267938 -0.200181 -0.491885 -0.870324 -0.024197
-0.831579 0.267347 -0.200181 -0.491849 -0.870334 -0.024556
-0.810526 0.266745 -0.200181 -0.492389 -0.870016 -0.024992
-0.789473 0.266137 -0.200181 -0.492172 -0.870147 -0.024708
-0.768421 0.265560 -0.200181 -0.492150 -0.870179 -0.024000
-0.747368 0.264971 -0.200181 -0.491668 -0.870443 -0.024318
-0.726315 0.264384 -0.200181 -0.491735 -0.870405 -0.024324
-0.705263 0.263795 -0.200181 -0.491699 -0.870422 -0.024437
-0.684210 0.263197 -0.200181 -0.491884 -0.870309 -0.024740
0.410528 0.221054 -0.193480 -0.491541 -0.870508 -0.024558
0.390465 0.221054 -0.193149 -0.491906 -0.870309 -0.024319
0.410528 0.220493 -0.193149 -0.492153 -0.870164 -0.024492
0.431581 0.219895 -0.193149 -0.491851 -0.870329 -0.024701
0.431581 0.221054 -0.193833 -0.491887 -0.870308 -0.024712
0.452633 0.219298 -0.193149 -0.491933 -0.870288 -0.024520
0.452633 0.221054 -0.194187 -0.492264 -0.870101 -0.024488
0.473686 0.218709 -0.193149 -0.491716 -0.870410 -0.024542
0.473686 0.221054 -0.194534 -0.491893 -0.870308 -0.024591
0.494739 0.218111 -0.193149 -0.491743 -0.870390 -0.024698
0.494739 0.221054 -0.194888 -0.491977 -0.870259 -0.024658
0.515791 0.217515 -0.193149 -0.491784 -0.870371 -0.024561
0.515791 0.221054 -0.195240 -0.492452 -0.869997 -0.024422
0.536844 0.216923 -0.193149 -0.491738 -0.870398 -0.024517
0.536844 0.221054 -0.195587 -0.492155 -0.870158 -0.024687
0.557897 0.216329 -0.193149 -0.491837 -0.870347 -0.024321
0.557897 0.221054 -0.195943 -0.492242 -0.870121 -0.024244
0.578949 0.215746 -0.193149 -0.492013 -0.870254 -0.024118
0.578949 0.221054 -0.196284 -0.491925 -0.870306 -0.024030
0.600002 0.215162 -0.193149 -0.492187 -0.870141 -0.024639
0.600002 0.221054 -0.196629 -0.491780 -0.870366 -0.024804
0.621055 0.214554 -0.193149 -0.492275 -0.870093 -0.024579
0.621055 0.221054 -0.196988 -0.491952 -0.870279 -0.024472
0.642107 0.213972 -0.193149 -0.492019 -0.870247 -0.024254
0.642107 0.221054 -0.197334 -0.491869 -0.870328 -0.024379
0.663160 0.213381 -0.193149 -0.492109 -0.870190 -0.024454
0.663160 0.221054 -0.197684 -0.491919 -0.870300 -0.024368
0.684213 0.212788 -0.193149 -0.491737 -0.870398 -0.024529
0.684213 0.221054 -0.198031 -0.492295 -0.870092 -0.024213
0.705265 0.212194 -0.193149 -0.492024 -0.870238 -0.024439
0.705265 0.221054 -0.198376 -0.491945 -0.870267 -0.025002
0.726318 0.211607 -0.193149 -0.491920 -0.870295 -0.024535
0.726318 0.221054 -0.198741 -0.491880 -0.870314 -0.024643
0.747371 0.210998 -0.193149 -0.492005 -0.870240 -0.024753
0.747371 0.221054 -0.199086 -0.491947 -0.870287 -0.024253
0.768423 0.210420 -0.193149 -0.491836 -0.870354 -0.024109
0.768423 0.221054 -0.199433 -0.491822 -0.870349 -0.024588
0.789476 0.209827 -0.193149 -0.491832 -0.870349 -0.024386
0.789476 0.221054 -0.199787 -0.492158 -0.870174 -0.024046
0.810529 0.209242 -0.193149 -0.491874 -0.870320 -0.024570
0.810529 0.221054 -0.200126 -0.492038 -0.870227 -0.024569
0.831581 0.208636 -0.193149 -0.491747 -0.870389 -0.024678
0.852634 0.208052 -0.193149 -0.491869 -0.870330 -0.024293
0.873687 0.207457 -0.193149 -0.491939 -0.870284 -0.024549
0.894739 0.206866 -0.193149 -0.491826 -0.870350 -0.024459
0.915792 0.206274 -0.193149 -0.492013 -0.870239 -0.024621
0.936845 0.205672 -0.193149 -0.492066 -0.870207 -0.024713
0.957897 0.205081 -0.193149 -0.491926 -0.870293 -0.024488
0.978950 0.204485 -0.193149 -0.492177 -0.870154 -0.024373
1.000003 0.203909 -0.193149 -0.492036 -0.870250 -0.023802
-0.347368 0.242107 -0.193319 -0.491570 -0.870498 -0.024332
-0.357714 0.242107 -0.193149 -0.491880 -0.870323 -0.024318
-0.347368 0.241817 -0.193149 -0.492141 -0.870176 -0.024323
-0.326315 0.241229 -0.193149 -0.492325 -0.870071 -0.024344
-0.326315 0.242107 -0.193668 -0.491857 -0.870337 -0.024306
-0.305262 0.240639 -0.193149 -0.491887 -0.870308 -0.024723
-0.305262 0.242107 -0.194015 -0.491904 -0.870296 -0.024801
-0.284210 0.240033 -0.193149 -0.492432 -0.870005 -0.024519
-0.284210 0.242107 -0.194373 -0.492197 -0.870140 -0.024453
-0.263157 0.239453 -0.193149 -0.492129 -0.870176 -0.024552
-0.263157 0.242107 -0.194718 -0.491747 -0.870390 -0.024640
-0.242104 0.238845 -0.193149 -0.492153 -0.870163 -0.024539
-0.242104 0.242107 -0.195074 -0.491902 -0.870308 -0.024439
-0.221052 0.238265 -0.193149 -0.492087 -0.870207 -0.024282
-0.221052 0.242107 -0.195421 -0.491678 -0.870432 -0.024511
-0.199999 0.237671 -0.193149 -0.491989 -0.870253 -0.024625
-0.199999 0.242107 -0.195773 -0.491659 -0.870443 -0.024525
-0.178946 0.237074 -0.193149 -0.491730 -0.870405 -0.024419
-0.178946 0.242107 -0.196123 -0.491951 -0.870281 -0.024410
-0.157894 0.236489 -0.193149 -0.492162 -0.870161 -0.024411
-0.157894 0.242107 -0.196471 -0.491950 -0.870286 -0.024223
-0.136841 0.235892 -0.193149 -0.491951 -0.870275 -0.024597
-0.136841 0.242107 -0.196816 -0.491409 -0.870571 -0.024953
-0.115788 0.235300 -0.193149 -0.492242 -0.870116 -0.024401
-0.115788 0.242107 -0.197180 -0.491842 -0.870347 -0.024243
-0.094736 0.234711 -0.193149 -0.491964 -0.870270 -0.024532
-0.094736 0.242107 -0.197517 -0.491678 -0.870437 -0.024333
-0.073683 0.234113 -0.193149 -0.491896 -0.870300 -0.024824
-0.073683 0.242107 -0.197871 -0.491857 -0.870319 -0.024921
-0.052630 0.233510 -0.193149 -0.492240 -0.870112 -0.024608
-0.052630 0.242107 -0.198229 -0.491997 -0.870256 -0.024368
-0.031578 0.232926 -0.193149 -0.491987 -0.870263 -0.024318
-0.031578 0.242107 -0.198572 -0.491944 -0.870282 -0.024490
-0.010525 0.232327 -0.193149 -0.491950 -0.870277 -0.024574
-0.010525 0.242107 -0.198925 -0.492189 -0.870143 -0.024510
0.010528 0.231741 -0.193149 -0.491951 -0.870286 -0.024208
0.010528 0.242107 -0.199274 -0.492086 -0.870204 -0.024420
0.031580 0.231156 -0.193149 -0.491737 -0.870404 -0.024329
0.031580 0.242107 -0.199623 -0.491955 -0.870287 -0.024106
0.052633 0.230562 -0.193149 -0.492309 -0.870069 -0.024723
0.052633 0.242107 -0.199965 -0.492062 -0.870211 -0.024660
0.073686 0.229959 -0.193149 -0.492052 -0.870219 -0.024583
0.094738 0.229376 -0.193149 -0.491949 -0.870290 -0.024128
0.115791 0.228789 -0.193149 -0.492470 -0.869985 -0.024491
0.136844 0.228187 -0.193149 -0.492194 -0.870135 -0.024706
0.157896 0.227598 -0.193149 -0.492193 -0.870144 -0.024416
0.178949 0.227004 -0.193149 -0.492281 -0.870090 -0.024557
0.200001 0.226409 -0.193149 -0.491841 -0.870339 -0.024536
0.221054 0.225817 -0.193149 -0.491933 -0.870290 -0.024428
0.242107 0.225228 -0.193149 -0.492238 -0.870115 -0.024536
0.263160 0.224627 -0.193149 -0.491997 -0.870247 -0.024679
0.284212 0.224038 -0.193149 -0.492058 -0.870223 -0.024312
0.305265 0.223451 -0.193149 -0.491783 -0.870385 -0.024064
0.326318 0.222880 -0.193149 -0.491430 -0.870581 -0.024199
0.347370 0.222264 -0.193149 -0.492052 -0.870207 -0.024982
0.368423 0.221685 -0.193149 -0.491568 -0.870502 -0.024253
0.389475 0.221082 -0.193149 -0.491820 -0.870347 -0.024665
-1.000000 0.263160 -0.194907 -0.492065 -0.870203 -0.024879
-0.978947 0.259582 -0.193149 -0.491977 -0.870261 -0.024564
-0.978947 0.263160 -0.195262 -0.492257 -0.870101 -0.024667
-1.000000 0.260178 -0.193149 -0.491992 -0.870251 -0.024648
-0.957895 0.258990 -0.193149 -0.492148 -0.870173 -0.024279
-0.957895 0.263160 -0.195613 -0.491971 -0.870275 -0.024214
-0.936842 0.258407 -0.193149 -0.491852 -0.870339 -0.024320
-0.936842 0.263160 -0.195957 -0.491676 -0.870436 -0.024397
-0.915789 0.257813 -0.193149 -0.491988 -0.870252 -0.024688
-0.915789 0.263160 -0.196308 -0.492158 -0.870160 -0.024553
-0.894737 0.257212 -0.193149 -0.491786 -0.870365 -0.024734
-0.894737 0.263160 -0.196659 -0.492058 -0.870209 -0.024797
-0.873684 0.256617 -0.193149 -0.492012 -0.870247 -0.024391
-0.873684 0.263160 -0.197015 -0.492318 -0.870074 -0.024387
-0.852631 0.256032 -0.193149 -0.491806 -0.870361 -0.024460
-0.852631 0.263160 -0.197359 -0.492327 -0.870073 -0.024235
-0.831579 0.255433 -0.193149 -0.492026 -0.870230 -0.024681
-0.831579 0.263160 -0.197706 -0.492087 -0.870194 -0.024767
-0.810526 0.254839 -0.193149 -0.492246 -0.870117 -0.024284
-0.810526 0.263160 -0.198064 -0.491770 -0.870370 -0.024865
-0.789473 0.254258 -0.193149 -0.492000 -0.870255 -0.024318
-0.789473 0.263160 -0.198419 -0.491727 -0.870410 -0.024334
-0.768421 0.253658 -0.193149 -0.491794 -0.870362 -0.024676
-0.768421 0.263160 -0.198763 -0.491945 -0.870289 -0.024233
-0.747368 0.253068 -0.193149 -0.491776 -0.870384 -0.024238
-0.747368 0.263160 -0.199111 -0.492086 -0.870209 -0.024245
-0.726315 0.252490 -0.193149 -0.491868 -0.870328 -0.024388
-0.726315 0.263160 -0.199457 -0.492068 -0.870216 -0.024373
-0.705263 0.251877 -0.193149 -0.492029 -0.870220 -0.025011
-0.705263 0.263160 -0.199805 -0.492168 -0.870153 -0.024580
-0.684210 0.251287 -0.193149 -0.491952 -0.870279 -0.024436
-0.684210 0.263160 -0.200158 -0.492190 -0.870136 -0.024735
-0.663157 0.250694 -0.193149 -0.492080 -0.870208 -0.024393
-0.642105 0.250108 -0.193149 -0.491791 -0.870372 -0.024367
-0.621052 0.249511 -0.193149 -0.492001 -0.870251 -0.024452
-0.599999 0.248932 -0.193149 -0.491810 -0.870364 -0.024274
-0.578947 0.248328 -0.193149 -0.491981 -0.870251 -0.024839
-0.557894 0.247734 -0.193149 -0.491913 -0.870302 -0.024416
-0.536842 0.247149 -0.193149 -0.491968 -0.870276 -0.024224
-0.515789 0.246562 -0.193149 -0.491977 -0.870259 -0.024663
-0.494736 0.245945 -0.193149 -0.492224 -0.870108 -0.025058
-0.473684 0.245362 -0.193149 -0.491832 -0.870355 -0.024149
-0.452631 0.244775 -0.193149 -0.492055 -0.870229 -0.024166
-0.431578 0.244196 -0.193149 -0.492050 -0.870224 -0.024451
-0.410526 0.243579 -0.193149 -0.492075 -0.870194 -0.025006
-0.389473 0.242999 -0.193149 -0.492121 -0.870193 -0.024130
-0.368420 0.242406 -0.193149 -0.491869 -0.870326 -0.024429
0.726318 0.200001 -0.186296 -0.491979 -0.870263 -0.024471
0.715243 0.200001 -0.186116 -0.492138 -0.870189 -0.023914
0.726318 0.199697 -0.186116 -0.491370 -0.870613 -0.024265
0.747371 0.199099 -0.186116 -0.492025 -0.870247 -0.024116
0.747371 0.200001 -0.186650 -0.491819 -0.870369 -0.023922
0.768423 0.198530 -0.186116 -0.491902 -0.870310 -0.024345
0.768423 0.200001 -0.186986 -0.491919 -0.870295 -0.024531
0.789476 0.197921 -0.186116 -0.492236 -0.870116 -0.024555
0.789476 0.200001 -0.187344 -0.492084 -0.870207 -0.024372
0.810529 0.197342 -0.186116 -0.492250 -0.870111 -0.024404
0.810529 0.200001 -0.187688 -0.492007 -0.870243 -0.024604
0.831581 0.196740 -0.186116 -0.492198 -0.870136 -0.024605
0.831581 0.200001 -0.188043 -0.491886 -0.870315 -0.024487
0.852634 0.196152 -0.186116 -0.491915 -0.870299 -0.024490
0.852634 0.200001 -0.188391 -0.491827 -0.870346 -0.024588
0.873687 0.195555 -0.186116 -0.492507 -0.869966 -0.024410
0.873687 0.200001 -0.188744 -0.492095 -0.870203 -0.024296
0.894739 0.194970 -0.186116 -0.492024 -0.870235 -0.024582
0.894739 0.200001 -0.189088 -0.491687 -0.870422 -0.024671
0.915792 0.194366 -0.186116 -0.492152 -0.870157 -0.024782
0.915792 0.200001 -0.189445 -0.491997 -0.870243 -0.024811
0.936845 0.193771 -0.186116 -0.491894 -0.870305 -0.024672
0.936845 0.200001 -0.189799 -0.492100 -0.870191 -0.024588
0.957897 0.193172 -0.186116 -0.491629 -0.870459 -0.024526
0.957897 0.200001 -0.190149 -0.492020 -0.870238 -0.024528
0.978950 0.192584 -0.186116 -0.491979 -0.870268 -0.024313
0.978950 0.200001 -0.190500 -0.492337 -0.870070 -0.024150
1.000003 0.191996 -0.186116 -0.491786 -0.870376 -0.024316
1.000003 0.200001 -0.190842 -0.492011 -0.870261 -0.023886
-0.031578 0.221054 -0.186142 -0.492130 -0.870186 -0.024188
-0.033082 0.221054 -0.186116 -0.491970 -0.870260 -0.024747
-0.031578 0.221012 -0.186116 -0.491625 -0.870465 -0.024386
-0.010525 0.220433 -0.186116 -0.491647 -0.870455 -0.024307
-0.010525 0.221054 -0.186484 -0.491870 -0.870326 -0.024426
0.010528 0.219836 -0.186116 -0.491905 -0.870311 -0.024241
0.010528 0.221054 -0.186836 -0.492219 -0.870139 -0.024066
0.031580 0.219260 -0.186116 -0.491475 -0.870544 -0.024600
0.031580 0.221054 -0.187176 -0.491759 -0.870375 -0.024903
0.052633 0.218646 -0.186116 -0.492102 -0.870186 -0.024744
0.052633 0.221054 -0.187540 -0.492209 -0.870131 -0.024537
0.073686 0.218063 -0.186116 -0.491701 -0.870429 -0.024162
0.073686 0.221054 -0.187884 -0.491796 -0.870375 -0.024178
0.094738 0.217478 -0.186116 -0.491595 -0.870477 -0.024593
0.094738 0.221054 -0.188230 -0.491915 -0.870292 -0.024741
0.115791 0.216873 -0.186116 -0.491700 -0.870413 -0.024728
0.115791 0.221054 -0.188588 -0.492333 -0.870058 -0.024651
0.136844 0.216281 -0.186116 -0.491638 -0.870456 -0.024455
0.136844 0.221054 -0.188937 -0.492157 -0.870165 -0.024379
0.157896 0.215690 -0.186116 -0.491495 -0.870528 -0.024774
0.157896 0.221054 -0.189285 -0.492245 -0.870104 -0.024768
0.178949 0.215083 -0.186116 -0.491755 -0.870388 -0.024522
0.178949 0.221054 -0.189641 -0.492653 -0.869886 -0.024318
0.200001 0.214504 -0.186116 -0.491907 -0.870319 -0.023910
0.200001 0.221054 -0.189984 -0.492026 -0.870247 -0.024118
0.221054 0.213927 -0.186116 -0.491961 -0.870274 -0.024425
0.221054 0.221054 -0.190330 -0.491712 -0.870409 -0.024634
0.242107 0.213322 -0.186116 -0.491834 -0.870337 -0.024743
0.242107 0.221054 -0.190685 -0.492064 -0.870211 -0.024627
0.263160 0.212729 -0.186116 -0.491801 -0.870363 -0.024504
0.263160 0.221054 -0.191036 -0.491929 -0.870289 -0.024560
0.284212 0.212137 -0.186116 -0.491563 -0.870503 -0.024275
0.284212 0.221054 -0.191387 -0.491933 -0.870295 -0.024247
0.305265 0.211556 -0.186116 -0.491852 -0.870343 -0.024176
0.305265 0.221054 -0.191732 -0.492175 -0.870170 -0.023829
0.326318 0.210963 -0.186116 -0.491928 -0.870288 -0.024607
0.326318 0.221054 -0.192070 -0.491953 -0.870266 -0.024900
0.347370 0.210365 -0.186116 -0.491880 -0.870316 -0.024586
0.347370 0.221054 -0.192435 -0.492429 -0.870009 -0.024437
0.368423 0.209776 -0.186116 -0.491894 -0.870309 -0.024550
0.368423 0.221054 -0.192776 -0.492087 -0.870198 -0.024602
0.389475 0.209174 -0.186116 -0.491822 -0.870343 -0.024776
0.389475 0.221054 -0.193132 -0.492444 -0.869997 -0.024567
0.410528 0.208577 -0.186116 -0.491849 -0.870335 -0.024522
0.431581 0.207989 -0.186116 -0.492132 -0.870183 -0.024255
0.452633 0.207405 -0.186116 -0.491819 -0.870356 -0.024371
0.473686 0.206804 -0.186116 -0.492007 -0.870241 -0.024694
0.494739 0.206215 -0.186116 -0.491752 -0.870391 -0.024466
0.515791 0.205617 -0.186116 -0.492041 -0.870223 -0.024667
0.536844 0.205023 -0.186116 -0.491959 -0.870278 -0.024340
0.557897 0.204446 -0.186116 -0.491786 -0.870383 -0.024072
0.578949 0.203851 -0.186116 -0.491708 -0.870412 -0.024615
0.600002 0.203255 -0.186116 -0.491644 -0.870448 -0.024637
0.621055 0.202662 -0.186116 -0.491687 -0.870424 -0.024596
0.642107 0.202060 -0.186116 -0.491888 -0.870309 -0.024674
0.663160 0.201473 -0.186116 -0.492009 -0.870250 -0.024324
0.684213 0.200884 -0.186116 -0.491681 -0.870428 -0.024590
0.705265 0.200276 -0.186116 -0.492858 -0.869761 -0.024647
-0.768421 0.242107 -0.186314 -0.491743 -0.870384 -0.024914
-0.780490 0.242107 -0.186116 -0.491862 -0.870340 -0.024108
-0.768421 0.241772 -0.186116 -0.491699 -0.870416 -0.024635
-0.747368 0.241160 -0.186116 -0.492012 -0.870237 -0.024719
-0.747368 0.242107 -0.186676 -0.492319 -0.870070 -0.024508
-0.726315 0.240576 -0.186116 -0.491696 -0.870423 -0.024456
-0.726315 0.242107 -0.187020 -0.492347 -0.870052 -0.024574
-0.705263 0.239977 -0.186116 -0.492140 -0.870175 -0.024364
-0.705263 0.242107 -0.187375 -0.491988 -0.870262 -0.024314
-0.684210 0.239397 -0.186116 -0.491774 -0.870377 -0.024537
-0.684210 0.242107 -0.187719 -0.491612 -0.870465 -0.024673
-0.663157 0.238790 -0.186116 -0.491971 -0.870266 -0.024542
-0.663157 0.242107 -0.188076 -0.492085 -0.870209 -0.024253
-0.642105 0.238210 -0.186116 -0.491873 -0.870328 -0.024285
-0.642105 0.242107 -0.188417 -0.491774 -0.870377 -0.024544
-0.621052 0.237615 -0.186116 -0.492115 -0.870185 -0.024537
-0.621052 0.242107 -0.188773 -0.492153 -0.870168 -0.024368
-0.599999 0.237022 -0.186116 -0.491524 -0.870518 -0.024550
-0.599999 0.242107 -0.189117 -0.491930 -0.870284 -0.024714
-0.578947 0.236428 -0.186116 -0.491830 -0.870346 -0.024512
-0.578947 0.242107 -0.189475 -0.492164 -0.870156 -0.024553
-0.557894 0.235836 -0.186116 -0.491846 -0.870340 -0.024403
-0.557894 0.242107 -0.189823 -0.491967 -0.870278 -0.024194
-0.536842 0.235248 -0.186116 -0.492116 -0.870188 -0.024393
-0.536842 0.242107 -0.190168 -0.491808 -0.870363 -0.024379
-0.515789 0.234656 -0.186116 -0.491871 -0.870321 -0.024602
-0.515789 0.242107 -0.190518 -0.491767 -0.870368 -0.025001
-0.494736 0.234057 -0.186116 -0.491986 -0.870258 -0.024532
-0.494736 0.242107 -0.190879 -0.491713 -0.870413 -0.024471
-0.473684 0.233469 -0.186116 -0.491722 -0.870408 -0.024495
-0.473684 0.242107 -0.191223 -0.491543 -0.870515 -0.024289
-0.452631 0.232871 -0.186116 -0.492058 -0.870214 -0.024620
-0.452631 0.242107 -0.191572 -0.492101 -0.870203 -0.024137
-0.431578 0.232282 -0.186116 -0.491897 -0.870312 -0.024397
-0.431578 0.242107 -0.191915 -0.491844 -0.870327 -0.024928
-0.410526 0.231689 -0.186116 -0.491746 -0.870395 -0.024458
-0.410526 0.242107 -0.192279 -0.492004 -0.870248 -0.024492
-0.389473 0.231101 -0.186116 -0.491568 -0.870497 -0.024402
-0.389473 0.242107 -0.192622 -0.492073 -0.870214 -0.024323
-0.368420 0.230505 -0.186116 -0.491628 -0.870456 -0.024666
-0.368420 0.242107 -0.192972 -0.492074 -0.870212 -0.024393
-0.347368 0.229908 -0.186116 -0.491908 -0.870301 -0.024536
-0.326315 0.229321 -0.186116 -0.492043 -0.870233 -0.024258
-0.305262 0.228733 -0.186116 -0.491678 -0.870434 -0.024456
-0.284210 0.228135 -0.186116 -0.491835 -0.870337 -0.024730
-0.263157 0.227536 -0.186116 -0.491731 -0.870397 -0.024690
-0.242104 0.226941 -0.186116 -0.491792 -0.870367 -0.024525
-0.221052 0.226353 -0.186116 -0.491899 -0.870309 -0.024430
-0.199999 0.225756 -0.186116 -0.492132 -0.870179 -0.024390
-0.178946 0.225180 -0.186116 -0.491440 -0.870581 -0.023984
-0.157894 0.224591 -0.186116 -0.492036 -0.870227 -0.024620
-0.136841 0.223983 -0.186116 -0.491761 -0.870375 -0.024865
-0.115788 0.223394 -0.186116 -0.491837 -0.870347 -0.024316
-0.094736 0.222807 -0.186116 -0.491920 -0.870300 -0.024324
-0.073683 0.222217 -0.186116 -0.491430 -0.870570 -0.024588
-0.052630 0.221611 -0.186116 -0.492099 -0.870181 -0.024978
-0.978947 0.247677 -0.186116 -0.491890 -0.870309 -0.024634
-1.000000 0.248275 -0.186116 -0.491860 -0.870322 -0.024742
-0.957895 0.247085 -0.186116 -0.492348 -0.870060 -0.024279
-0.936842 0.246508 -0.186116 -0.491541 -0.870522 -0.024073
-0.915789 0.245915 -0.186116 -0.492088 -0.870196 -0.024678
-0.894737 0.245309 -0.186116 -0.492359 -0.870039 -0.024797
-0.873684 0.244721 -0.186116 -0.491931 -0.870300 -0.024126
-0.852631 0.244148 -0.186116 -0.491590 -0.870493 -0.024103
-0.831579 0.243542 -0.186116 -0.491414 -0.870566 -0.025040
-0.810526 0.242939 -0.186116 -0.491672 -0.870431 -0.024672
-0.789473 0.242356 -0.186116 -0.491626 -0.870473 -0.024102
0.305265 0.200001 -0.179291 -0.492020 -0.870232 -0.024736
0.292969 0.200001 -0.179084 -0.492012 -0.870237 -0.024734
0.305265 0.199652 -0.179084 -0.491988 -0.870251 -0.024725
0.326318 0.199054 -0.179084 -0.491931 -0.870289 -0.024521
0.326318 0.200001 -0.179644 -0.492189 -0.870145 -0.024438
0.347370 0.198466 -0.179084 -0.491856 -0.870336 -0.024345
0.347370 0.200001 -0.179991 -0.491865 -0.870331 -0.024363
0.368423 0.197877 -0.179084 -0.492124 -0.870184 -0.024364
0.368423 0.200001 -0.180341 -0.491857 -0.870334 -0.024376
0.389475 0.197287 -0.179084 -0.491789 -0.870364 -0.024712
0.389475 0.200001 -0.180688 -0.491621 -0.870455 -0.024840
0.410528 0.196681 -0.179084 -0.491942 -0.870278 -0.024711
0.410528 0.200001 -0.181047 -0.491878 -0.870316 -0.024625
0.431581 0.196091 -0.179084 -0.491978 -0.870271 -0.024194
0.431581 0.200001 -0.181396 -0.491816 -0.870368 -0.024026
0.452633 0.195511 -0.179084 -0.491749 -0.870393 -0.024465
0.452633 0.200001 -0.181737 -0.491575 -0.870485 -0.024700
0.473686 0.194908 -0.179084 -0.492148 -0.870167 -0.024485
0.473686 0.200001 -0.182097 -0.491889 -0.870317 -0.024374
0.494739 0.194326 -0.179084 -0.491912 -0.870300 -0.024513
0.494739 0.200001 -0.182440 -0.491474 -0.870544 -0.024636
0.515791 0.193722 -0.179084 -0.491795 -0.870364 -0.024561
0.515791 0.200001 -0.182797 -0.491603 -0.870470 -0.024681
0.536844 0.193137 -0.179084 -0.491603 -0.870480 -0.024319
0.536844 0.200001 -0.183148 -0.491870 -0.870332 -0.024207
0.557897 0.192546 -0.179084 -0.491562 -0.870501 -0.024388
0.557897 0.200001 -0.183491 -0.491872 -0.870329 -0.024265
0.578949 0.191957 -0.179084 -0.492064 -0.870224 -0.024135
0.578949 0.200001 -0.183840 -0.491549 -0.870506 -0.024471
0.600002 0.191379 -0.179084 -0.491795 -0.870361 -0.024672
0.600002 0.200001 -0.184191 -0.491668 -0.870432 -0.024697
0.621055 0.190755 -0.179084 -0.491983 -0.870235 -0.025374
0.621055 0.200001 -0.184545 -0.491733 -0.870394 -0.024756
0.642107 0.190166 -0.179084 -0.491849 -0.870348 -0.024071
0.642107 0.200001 -0.184899 -0.491646 -0.870453 -0.024397
0.663160 0.189596 -0.179084 -0.491997 -0.870264 -0.024075
0.663160 0.200001 -0.185246 -0.491499 -0.870538 -0.024332
0.684213 0.188990 -0.179084 -0.491771 -0.870369 -0.024887
0.684213 0.200001 -0.185594 -0.491171 -0.870708 -0.024870
0.705265 0.188397 -0.179084 -0.492019 -0.870239 -0.024535
0.705265 0.200001 -0.185954 -0.491751 -0.870393 -0.024427
0.726318 0.187801 -0.179084 -0.491879 -0.870316 -0.024592
0.747371 0.187208 -0.179084 -0.491899 -0.870308 -0.024502
0.768423 0.186616 -0.179084 -0.492234 -0.870123 -0.024334
0.789476 0.186034 -0.179084 -0.491720 -0.870414 -0.024319
0.810529 0.185433 -0.179084 -0.491630 -0.870449 -0.024865
